# .PCD v0.7 - Point Cloud Data file format
VERSION 0.7
FIELDS x y z
SIZE 4 4 4
TYPE F F F
COUNT 1 1 1
WIDTH 1398
HEIGHT 1
VIEWPOINT 0 0 0 1 0 0 0
POINTS 1398
DATA ascii
0.52150035 0.19796808 -0.42075846
0.11616981 0.205248 -0.42587337
0.1205309 0.20184882 -0.42622635
0.11693722 0.21448457 -0.42476878
0.12030238 0.21920805 -0.4241032
0.11780852 0.2253264 -0.42604816
0.12077731 0.2245249 -0.42372996
0.11768204 0.23631215 -0.42604849
0.12048978 0.23248608 -0.42539981
0.11595166 0.24505252 -0.42490125
0.53317368 0.24917139 -0.42997313
0.1139257 0.25533545 -0.42507896
0.52828658 0.25762534 -0.42779079
0.53086817 0.25335923 -0.42887214
0.11559403 0.26458946 -0.42392036
0.52784705 0.26477218 -0.42732695
0.11442405 0.27473873 -0.42457461
0.52708805 0.27515024 -0.4265641
0.11593884 0.28531948 -0.42613038
0.5240128 0.28523093 -0.42402393
0.1129387 0.29490945 -0.42464936
0.52497554 0.29494894 -0.42468908
0.11546355 0.30500653 -0.42396531
0.52404559 0.30484256 -0.42373705
0.11563617 0.31446883 -0.42521504
0.5197829 0.31304365 -0.42200243
0.52044785 0.31586188 -0.42129174
0.11553144 0.32518807 -0.42567235
0.52179384 0.32541651 -0.42183799
0.11490667 0.33443919 -0.42452848
0.52259719 0.33389771 -0.42235178
0.11366183 0.34490293 -0.42418787
0.52052057 0.34846595 -0.42028305
0.10927832 0.35797104 -0.42732045
0.11375898 0.35552773 -0.42445272
0.52083337 0.35106966 -0.42046404
0.10952628 0.36161414 -0.42705214
0.11518198 0.365087 -0.42578915
0.10969615 0.37271231 -0.42735755
0.1130749 0.37516713 -0.42494148
0.52096438 0.37874618 -0.42002466
0.11363399 0.38482741 -0.42564186
0.5212512 0.38135257 -0.42018643
0.11404186 0.39468211 -0.42541242
0.11300188 0.40482509 -0.4251107
0.11594015 0.41564798 -0.42500734
0.52235329 0.4123584 -0.42040119
0.11486822 0.42409855 -0.42505458
0.53219223 0.42690665 -0.42952329
0.11434817 0.43510887 -0.4259963
0.52908552 0.4373796 -0.42855173
0.53111112 0.43386543 -0.42869228
0.11438042 0.44512215 -0.42527771
0.52780604 0.44500852 -0.42697567
0.11585975 0.45487836 -0.42598924
0.52912545 0.45430118 -0.42797372
0.5309689 0.45744327 -0.42789036
0.11640251 0.46464735 -0.42525509
0.52580869 0.4648262 -0.42516768
0.53056395 0.46024743 -0.42713785
0.11712492 0.47490609 -0.42501715
0.5246489 0.47533411 -0.42404065
0.11698902 0.48528177 -0.42464945
0.12094253 0.48994005 -0.42343158
0.52493668 0.48458344 -0.42381087
0.11766142 0.49441481 -0.42314389
0.12049514 0.49588299 -0.42631745
0.52497029 0.49454242 -0.42232457
0.11650825 0.5050084 -0.42473528
0.52407908 0.50461137 -0.42146847
0.11753136 0.5149467 -0.4254207
0.12201691 0.51673865 -0.42299858
0.52399099 0.51539552 -0.42160884
0.11712956 0.52448511 -0.42492217
0.12013453 0.52361208 -0.42069048
0.52330887 0.52388078 -0.42137188
0.11865979 0.53369516 -0.42587796
0.12082702 0.53738827 -0.42622638
0.5245961 0.53562629 -0.42164376
0.11904657 0.54420054 -0.42600504
0.12137276 0.54631788 -0.42394632
0.52356362 0.54267967 -0.4211348
0.11878276 0.55410045 -0.42930469
0.1226719 0.55494189 -0.42478746
0.52276444 0.55502677 -0.42109063
0.12288135 0.56576586 -0.42490152
0.11939847 0.57891142 -0.4216499
0.1215198 0.57496214 -0.42504874
0.52295864 0.57170057 -0.4209106
0.11904603 0.58279121 -0.42298448
0.12072724 0.58537275 -0.42501006
0.52409208 0.58707988 -0.42113772
0.12370366 0.59425658 -0.42529538
0.52498031 0.59138274 -0.42124054
0.1198622 0.60814482 -0.42933497
0.12415308 0.60578132 -0.42567971
0.11992472 0.61053193 -0.42933497
0.12265146 0.61442554 -0.42472374
0.53724623 0.61782432 -0.42823586
0.12498206 0.62462926 -0.42559716
0.53293896 0.62521577 -0.42569593
0.12762833 0.63535428 -0.42473644
0.52866781 0.63762355 -0.42268386
0.53139985 0.633268 -0.4240818
0.12514788 0.64559823 -0.42490509
0.16145587 0.64811373 -0.42239559
0.52569497 0.64532286 -0.42194095
0.53211987 0.64784056 -0.42782155
0.12607038 0.65496624 -0.42497316
0.13044959 0.65364808 -0.42002466
0.16088355 0.65073502 -0.42169499
0.17774218 0.65764296 -0.42068338
0.25291568 0.65912914 -0.42125854
0.50967121 0.65805709 -0.42184851
0.51716661 0.6562407 -0.42495021
0.52214682 0.65217203 -0.42439488
0.53016067 0.65142965 -0.42946652
0.12690508 0.66582441 -0.42609948
0.13033324 0.66758204 -0.42887294
0.17683357 0.66404545 -0.42226002
0.18552589 0.66437292 -0.42752293
0.19029415 0.66334224 -0.42749086
0.20171189 0.66712606 -0.42202803
0.21882552 0.66632879 -0.42132428
0.25295728 0.66072094 -0.42125854
0.35741627 0.66891444 -0.42994896
0.40421534 0.66656303 -0.42393038
0.44356191 0.66613412 -0.4240289
0.45888734 0.66560161 -0.4274216
0.47204709 0.66500819 -0.42393145
0.49444604 0.66437012 -0.42499673
0.5028832 0.66421235 -0.42754057
0.51159966 0.66231745 -0.42693222
0.12739253 0.67372715 -0.42558858
0.130018 0.67640364 -0.42824572
0.18652922 0.67378485 -0.42366442
0.19645375 0.67278421 -0.4217892
0.20270818 0.67512441 -0.42555329
0.21490109 0.67877996 -0.42114902
0.35749173 0.6717931 -0.42994896
0.4401691 0.67099893 -0.42915949
0.12907231 0.68086737 -0.42099082
0.1414327 0.68704557 -0.42205009
0.20725423 0.68281001 -0.42479488
0.21797574 0.68353736 -0.42764291
0.12781698 -0.035864145 -0.41308561
0.088763237 -0.02320382 -0.41108117
0.12542713 -0.024225533 -0.41581228
0.13179743 -0.021667391 -0.41584554
0.18548447 -0.020710617 -0.41185561
0.19805628 -0.024750412 -0.41262701
0.20533758 -0.025471896 -0.41390687
0.12513345 -0.015496612 -0.41569671
0.15879476 -0.013876945 -0.41922677
0.18588144 -0.018121988 -0.41164508
0.19729614 -0.017788231 -0.41557857
0.21235287 -0.012886882 -0.41398379
0.22659045 -0.012539029 -0.41133305
0.23169357 -0.014860064 -0.41917071
0.333359 -0.012844741 -0.41073436
0.34136754 -0.011525959 -0.41055125
0.36376369 -0.014181823 -0.41500241
0.38250995 -0.014503419 -0.4147298
0.3916918 -0.013516366 -0.41033757
0.41458297 -0.015428901 -0.41843954
0.4239161 -0.013812423 -0.41452304
0.44165039 -0.014186859 -0.41712418
0.46691883 -0.015960991 -0.41291255
0.48293269 -0.016409457 -0.41422996
0.49760675 -0.015774786 -0.41350585
0.50330722 -0.012996286 -0.41455367
0.51298594 -0.011137128 -0.41657779
0.12477607 -0.0049513578 -0.41691044
0.14488167 -0.0035150349 -0.41077092
0.51572156 -0.004198879 -0.41558683
0.12373948 0.0059138238 -0.41526043
0.51655853 0.0050311983 -0.41442931
0.12264782 0.014919788 -0.41516733
0.51637983 0.015283346 -0.413257
0.52135408 0.017411441 -0.41938016
0.11986071 0.023876756 -0.41618219
0.12291849 0.025215894 -0.41506079
0.14600158 0.028369039 -0.41403887
0.51583135 0.025230318 -0.41379863
0.11853838 0.036125213 -0.41815352
0.12448359 0.035265177 -0.41626081
0.14840966 0.032381296 -0.41625974
0.15073168 0.035120696 -0.41852251
0.51451397 0.034920961 -0.41481838
0.11876482 0.043606281 -0.41818789
0.12381774 0.045022488 -0.41539624
0.1403445 0.043666929 -0.41057122
0.51570046 0.044920117 -0.41544762
0.11940384 0.056514531 -0.41852698
0.12418443 0.054881096 -0.41560546
0.51683569 0.05522117 -0.41480774
0.5205723 0.05939424 -0.41484711
0.12534684 0.064864695 -0.41504642
0.51743639 0.06482178 -0.41365075
0.52085912 0.062171787 -0.41027293
0.12276864 0.075278431 -0.41384122
0.51776171 0.074173987 -0.41435406
0.52002203 0.078247607 -0.41565722
0.1233716 0.085171252 -0.41511434
0.51645315 0.085171163 -0.41448608
0.11888206 0.098129928 -0.4180477
0.12287843 0.094945371 -0.41374493
0.51682889 0.095436484 -0.41436818
0.52010977 0.099007279 -0.41532362
0.11865169 0.10195403 -0.41724557
0.12263638 0.10506752 -0.41417101
0.5177331 0.104389 -0.41379765
0.52037013 0.10092126 -0.41547742
0.11935556 0.1138587 -0.41012117
0.12208021 0.11595766 -0.41592911
0.51645529 0.11493585 -0.41391623
0.12204844 0.12479483 -0.41542011
0.51557672 0.12537079 -0.41307175
0.12279755 0.13444477 -0.41491032
0.13459873 0.13727927 -0.41033056
0.51476002 0.13513336 -0.41228548
0.52043796 0.1364626 -0.41958115
0.11850572 0.14540286 -0.41485822
0.12038916 0.14146306 -0.41789889
0.51586616 0.14501598 -0.41266516
0.5204078 0.1416558 -0.4194589
0.11874926 0.15334839 -0.41443282
0.12194628 0.15729049 -0.4140287
0.51681602 0.15497674 -0.41262698
0.12352556 0.16446686 -0.41469032
0.51602125 0.16499069 -0.41228807
0.52136242 0.16493014 -0.41971293
0.11833096 0.17813061 -0.4155958
0.12171263 0.17430598 -0.41500369
0.51691782 0.17495419 -0.41377357
0.52023089 0.17602009 -0.41866645
0.1178506 0.1847948 -0.41467234
0.12061715 0.18608345 -0.41047874
0.5163182 0.18485144 -0.41463301
0.1166687 0.19481029 -0.41411233
0.12073416 0.19671145 -0.41089675
0.51745808 0.19448599 -0.41433424
0.5212431 0.19851416 -0.41677183
0.11687481 0.20506503 -0.41405031
0.12120998 0.20560245 -0.41110227
0.51758301 0.20517829 -0.41449612
0.52069509 0.20124641 -0.41773278
0.11728877 0.21481872 -0.41411576
0.12106788 0.21480182 -0.4125385
0.13137329 0.21213596 -0.41063091
0.51750588 0.21490805 -0.41512784
0.1187309 0.22607243 -0.41570336
0.12134755 0.22175418 -0.41555074
0.51761878 0.22442947 -0.41505307
0.52041662 0.2290464 -0.41620475
0.11829466 0.234909 -0.41610596
0.51784074 0.23462509 -0.41515109
0.11752445 0.24486983 -0.41596621
0.5167731 0.24519455 -0.41478884
0.11653578 0.25500271 -0.41582575
0.12930465 0.25581858 -0.41057533
0.13134331 0.25173426 -0.41145238
0.51559293 0.25565451 -0.41359329
0.1170494 0.26526386 -0.41408622
0.51496351 0.26481938 -0.41280627
0.11649072 0.27506733 -0.41478384
0.51444197 0.27466005 -0.41243994
0.11473352 0.28563631 -0.41565883
0.51390719 0.28566346 -0.41204879
0.11565739 0.29490164 -0.415317
0.51651394 0.29529423 -0.41241163
0.11704475 0.30538535 -0.41492912
0.12769639 0.30311918 -0.41057357
0.51463246 0.30530727 -0.4119294
0.11576307 0.31518415 -0.414489
0.51409042 0.31461501 -0.41147658
0.5210824 0.31495914 -0.41976911
0.11282861 0.3246145 -0.41415238
0.5128684 0.32460147 -0.41116691
0.52157819 0.32208201 -0.41999751
0.11528015 0.33532104 -0.41548124
0.51276302 0.33464691 -0.41194215
0.52031481 0.33808798 -0.4187547
0.11384857 0.34484121 -0.41453481
0.51821506 0.34312281 -0.41759315
0.52089143 0.34614158 -0.41803974
0.11570501 0.35478762 -0.41478756
0.51932681 0.35639915 -0.41798583
0.52114832 0.35236111 -0.41796854
0.11585766 0.36528206 -0.41522431
0.51748776 0.36479771 -0.41614977
0.11481696 0.37449449 -0.41505551
0.51783395 0.37250885 -0.41594347
0.52145839 0.37661216 -0.41871095
0.1155535 0.38484523 -0.41501465
0.52111816 0.38491312 -0.41821724
0.11483389 0.39490694 -0.41490212
0.5190928 0.39511865 -0.41674903
0.5214262 0.39028883 -0.41856596
0.11382633 0.40449491 -0.41556251
0.12802631 0.40452293 -0.41080582
0.5179683 0.40224531 -0.41553974
0.52162123 0.4076595 -0.41837397
0.11631286 0.41471994 -0.4145585
0.12097245 0.41873342 -0.4144235
0.5149914 0.41417268 -0.41022122
0.52155077 0.41548643 -0.41810203
0.11549217 0.42571551 -0.41635251
0.12106985 0.4238956 -0.41676942
0.52090561 0.42531776 -0.41743538
0.11415559 0.43462777 -0.41502532
0.120188 0.43006533 -0.4150202
0.51914501 0.43704334 -0.417025
0.5205797 0.43448439 -0.41659433
0.11549705 0.44493714 -0.41462883
0.51672447 0.44528654 -0.41402897
0.11593068 0.45478916 -0.41496548
0.51720381 0.45517603 -0.41412058
0.11686409 0.46511859 -0.41458356
0.51708937 0.46518758 -0.41341066
0.11673206 0.4759827 -0.41524157
0.51628661 0.47432321 -0.41290325
0.11740899 0.48436093 -0.41517749
0.12078506 0.48594952 -0.41337454
0.51761329 0.48478079 -0.41286078
0.52336729 0.48876178 -0.41023859
0.11672837 0.49525097 -0.41392359
0.12027156 0.49701917 -0.41179809
0.5181787 0.49519837 -0.41257092
0.11718017 0.50471073 -0.41425323
0.12097001 0.50898665 -0.41223362
0.51711345 0.5051493 -0.4115932
0.11912227 0.51398295 -0.41821897
0.12280941 0.51564157 -0.41497105
0.51740336 0.51476443 -0.41162148
0.52410924 0.51280802 -0.41975403
0.11828202 0.5258953 -0.41668099
0.12181491 0.52434576 -0.41376591
0.51872313 0.52463007 -0.41240403
0.52274191 0.52603555 -0.41905805
0.11884069 0.53474736 -0.41609466
0.12147266 0.53529841 -0.4131287
0.51834929 0.53652716 -0.41286233
0.52124822 0.5332188 -0.41387948
0.11951739 0.54282194 -0.41801158
0.12171942 0.54504466 -0.41451219
0.51544213 0.54489261 -0.41080776
0.52244031 0.54627031 -0.41881433
0.12269264 0.55501229 -0.41523889
0.5172981 0.55474031 -0.41141543
0.52170324 0.55523038 -0.41865563
0.12476027 0.56545496 -0.41599852
0.13023567 0.56983036 -0.41358775
0.51834834 0.5655275 -0.41418168
0.52080977 0.56312948 -0.41673163
0.12433189 0.57436866 -0.41557705
0.51924121 0.57463264 -0.41208145
0.52180624 0.57511795 -0.41571853
0.11960459 0.58246779 -0.41729411
0.1220575 0.58537936 -0.41492429
0.51930547 0.58716202 -0.41201761
0.52167177 0.5838809 -0.41481027
0.12300175 0.59442037 -0.41392013
0.5188297 0.59561723 -0.41330445
0.52271891 0.59342849 -0.41834122
0.12461072 0.60417545 -0.41499233
0.51806772 0.6042279 -0.41268349
0.52196407 0.60980582 -0.41001755
0.11952549 0.61513054 -0.41295177
0.12356371 0.61492366 -0.41375363
0.13116187 0.61785913 -0.41354823
0.51904261 0.61460817 -0.41142341
0.52027488 0.61326718 -0.41027272
0.12460721 0.62479138 -0.41381562
0.13107818 0.62236637 -0.41309458
0.51960504 0.62413168 -0.41191521
0.52136695 0.62623841 -0.41113982
0.12550098 0.63545871 -0.41438749
0.51868129 0.63591599 -0.41139603
0.52168965 0.6329363 -0.41213927
0.12642068 0.64477402 -0.41451913
0.15695781 0.64966601 -0.41743466
0.51714802 0.64113867 -0.41055354
0.52452707 0.64584857 -0.4176507
0.12757808 0.65583718 -0.41519979
0.13088328 0.65547264 -0.4120189
0.15447348 0.6517421 -0.41465974
0.16779417 0.65882862 -0.41001853
0.17560035 0.65818506 -0.4157199
0.24056017 0.65815508 -0.41060352
0.37523913 0.65905392 -0.41016963
0.4484036 0.65904105 -0.41465604
0.45804024 0.6585778 -0.41006115
0.47548389 0.65879411 -0.41286108
0.49070716 0.658319 -0.41140056
0.50364506 0.65741032 -0.41357628
0.51544702 0.65488052 -0.41495216
0.52196908 0.65150326 -0.41705179
0.12254816 0.6632036 -0.41217193
0.13054633 0.66626966 -0.41100374
0.16459197 0.66619867 -0.41099364
0.17714298 0.66332638 -0.41460609
0.18272859 0.66893381 -0.41456789
0.19311613 0.66505194 -0.41125587
0.20338202 0.66407108 -0.41429114
0.21534932 0.66432387 -0.41453525
0.22765714 0.66541934 -0.41707844
0.23320061 0.6636616 -0.4143196
0.24062866 0.66077179 -0.41060352
0.34674078 0.66495913 -0.41771552
0.35737765 0.66479683 -0.41822898
0.37529981 0.66137099 -0.41016963
0.40788555 0.66229427 -0.41208982
0.44755387 0.6629132 -0.41580239
0.45810449 0.66103268 -0.41006115
0.47553265 0.66065872 -0.41286108
0.49486744 0.66182083 -0.41655478
0.12601727 0.67392468 -0.41397467
0.13212943 0.67516625 -0.41317618
0.17965859 0.67122686 -0.4182587
0.18271393 0.67374122 -0.41486233
0.19754422 0.67275608 -0.4172917
0.20892596 0.67646551 -0.41098636
0.21557248 0.67876232 -0.41975853
0.12969702 0.68085098 -0.41969696
0.13425797 0.68185115 -0.41503274
0.20652258 0.68653357 -0.41559854
0.22392219 0.68396544 -0.41285256
0.20914871 0.69052958 -0.41839653
0.21416408 0.69120789 -0.41523191
0.1316753 -0.04038763 -0.40821514
0.12666035 -0.033823133 -0.40467656
0.13198823 -0.038907796 -0.40401804
0.49593616 -0.031093121 -0.40012655
0.12410778 -0.025187612 -0.4044987
0.1391139 -0.024776071 -0.40049207
0.1422472 -0.026516795 -0.40056303
0.18391722 -0.020822823 -0.40616232
0.19615448 -0.022888213 -0.40410069
0.20704395 -0.02316314 -0.40583503
0.21447492 -0.025137365 -0.40513662
0.45684516 -0.024390668 -0.40143225
0.46442842 -0.024306655 -0.40153554
0.12428153 -0.014392525 -0.40494794
0.16145724 -0.015927374 -0.40314981
0.18690741 -0.018340468 -0.40868866
0.19321877 -0.015283555 -0.40423298
0.20867437 -0.011256307 -0.40477431
0.21043313 -0.011417419 -0.40239334
0.34161055 -0.011533439 -0.40407118
0.35447311 -0.010967821 -0.40087306
0.36088336 -0.012870461 -0.4092246
0.37762177 -0.013372242 -0.40474364
0.38713837 -0.012605786 -0.40281841
0.39349258 -0.01282987 -0.40676069
0.41932929 -0.012110949 -0.40331241
0.42070746 -0.012448221 -0.40440306
0.44543207 -0.016362429 -0.40409869
0.45930219 -0.018001229 -0.40026522
0.46392214 -0.01514256 -0.40416819
0.4858228 -0.016228497 -0.40476143
0.49454033 -0.014556855 -0.4042092
0.50460255 -0.012364268 -0.40533176
0.51064813 -0.011015385 -0.40502989
0.12260318 -0.0047746003 -0.40416771
0.13339311 -0.0028664172 -0.4008598
0.14407611 -0.0048821568 -0.40833047
0.19295806 -0.0092283785 -0.40274656
0.20838749 -0.0096706152 -0.40513697
0.21024907 -0.0098622143 -0.40285856
0.50959516 -0.0087584555 -0.40604758
0.51407886 -0.0047037601 -0.40603676
0.12427777 0.004711926 -0.40501776
0.13559407 0.0046241581 -0.40343085
0.14100188 0.00881356 -0.40892029
0.51736069 0.0049265921 -0.40609565
0.52029359 0.0016109645 -0.40472808
0.12535226 0.015033662 -0.40481555
0.13597286 0.015839815 -0.40424865
0.14105767 0.010766745 -0.40892527
0.51577175 0.015114158 -0.40532219
0.12483686 0.02446714 -0.40413967
0.13382596 0.025019586 -0.40348843
0.14140224 0.025165319 -0.40862206
0.51530468 0.025738299 -0.40511557
0.12415564 0.035448134 -0.40415415
0.13505906 0.034753412 -0.40564364
0.51422226 0.035246909 -0.40525845
0.12641722 0.04516843 -0.40487766
0.1356703 0.044274151 -0.40587536
0.14098161 0.04365027 -0.40925157
0.51426125 0.044597447 -0.40559375
0.12466836 0.054574192 -0.40490791
0.13291025 0.054012746 -0.40183392
0.51575303 0.054630011 -0.40573063
0.52159357 0.059533 -0.40928307
0.12447441 0.065495282 -0.40467021
0.13072401 0.060693055 -0.40030932
0.51806438 0.065622896 -0.40504429
0.52072573 0.063385129 -0.40779674
0.1256786 0.075068831 -0.40463468
0.13080603 0.077482849 -0.40257093
0.51728511 0.074974865 -0.4055005
0.5204246 0.075810671 -0.40740192
0.12483186 0.084606886 -0.40455058
0.13110131 0.08081454 -0.40279761
0.51546872 0.08478871 -0.40634415
0.1265325 0.094673067 -0.40531644
0.13403749 0.095821321 -0.40580583
0.51550949 0.09409821 -0.40657932
0.52069592 0.099214166 -0.40787902
0.12540275 0.10537352 -0.40499187
0.13457888 0.10295784 -0.40595484
0.51767898 0.10678118 -0.40806749
0.52121902 0.10303511 -0.40818572
0.11919618 0.11412024 -0.40490195
0.12425798 0.11549015 -0.40402347
0.51724792 0.11492629 -0.40795097
0.52029967 0.11548974 -0.4057146
0.12465924 0.12489936 -0.40513745
0.1315611 0.12854542 -0.40591991
0.51686418 0.12471908 -0.40799186
0.52048182 0.12551774 -0.40632838
0.11967653 0.13879968 -0.40974995
0.1239869 0.1353596 -0.40575692
0.13289517 0.13505833 -0.40714768
0.51575363 0.13438432 -0.40819588
0.52124333 0.13559556 -0.40751702
0.11845839 0.14530587 -0.40492028
0.12323654 0.14563327 -0.40122306
0.13162774 0.14517328 -0.40456787
0.51655507 0.14440607 -0.40857199
0.52225685 0.1450097 -0.40814134
0.11923021 0.15263952 -0.4065752
0.12317699 0.15517993 -0.40412351
0.13062376 0.1509812 -0.40292406
0.51760828 0.15500148 -0.40849611
0.52260649 0.15468642 -0.40821114
0.12607288 0.16500112 -0.40640166
0.13110346 0.16645372 -0.40676826
0.51678443 0.1658259 -0.40824875
0.52258027 0.16503672 -0.40799549
0.12301368 0.17530102 -0.40465626
0.1305083 0.17264102 -0.40566
0.51764178 0.17543402 -0.40854546
0.52148902 0.17479943 -0.40701905
0.11928672 0.18949138 -0.40761092
0.12376338 0.18498495 -0.40480384
0.51644802 0.18470235 -0.407866
0.52078485 0.18503559 -0.405902
0.11842012 0.19428071 -0.40706888
0.12236249 0.19560623 -0.40444401
0.5182749 0.19397694 -0.40865278
0.52279067 0.19488558 -0.40770692
0.11855114 0.20445456 -0.40850422
0.12293625 0.20497498 -0.40559143
0.51707077 0.20628896 -0.4071255
0.52233326 0.20394045 -0.4064514
0.11879456 0.21700092 -0.40568405
0.12291467 0.21507144 -0.40597042
0.13069445 0.21313387 -0.40852118
0.51689112 0.21522731 -0.40631336
0.52043939 0.21508487 -0.40314707
0.11798495 0.22596943 -0.4051716
0.12417042 0.22417822 -0.4044396
0.51686192 0.22452089 -0.40651333
0.52043152 0.22532031 -0.4028872
0.11676133 0.23504844 -0.40487501
0.12176222 0.23495534 -0.40265083
0.51735473 0.23517036 -0.405947
0.52030611 0.23262513 -0.4024581
0.11643589 0.24504101 -0.40498802
0.12323838 0.24543934 -0.40443453
0.51657414 0.24517667 -0.40541863
0.52002513 0.2424764 -0.40154821
0.11613673 0.25508636 -0.40316522
0.12883782 0.25660414 -0.40841323
0.13030523 0.25484031 -0.40921479
0.51693177 0.25516379 -0.40542513
0.52097082 0.25856343 -0.40348932
0.11786693 0.26508522 -0.40473208
0.12542367 0.26423922 -0.4058924
0.51719081 0.26493004 -0.40574044
0.1179406 0.27508855 -0.40507418
0.12083346 0.27597603 -0.40460479
0.51648247 0.27477345 -0.40598518
0.11596662 0.28478184 -0.40575901
0.12273204 0.28485429 -0.40524811
0.51704001 0.28455067 -0.40587887
0.52015245 0.28937754 -0.40309605
0.11680549 0.29494315 -0.40496522
0.12336534 0.29527298 -0.40540433
0.51878357 0.29469404 -0.40541974
0.52139318 0.295564 -0.40622538
0.11795563 0.30463928 -0.40645745
0.12569362 0.30540764 -0.40771735
0.51703155 0.30517831 -0.40619141
0.52066219 0.30489221 -0.40658936
0.11716372 0.31538606 -0.40501124
0.12544614 0.31246936 -0.40713286
0.51635587 0.31546459 -0.40650469
0.52132928 0.31457776 -0.40737936
0.11430216 0.32511643 -0.4048782
0.51577401 0.32482293 -0.40643629
0.52102578 0.32033658 -0.40704879
0.11524647 0.33547044 -0.40524751
0.12105727 0.33497 -0.40517476
0.51529765 0.33490512 -0.40621182
0.11678058 0.34471524 -0.40601781
0.1214425 0.34725636 -0.40543431
0.50997829 0.34029815 -0.40795559
0.51430547 0.34498546 -0.40549117
0.11705333 0.35555711 -0.40569472
0.12163013 0.352817 -0.40540573
0.51522756 0.35522926 -0.40636927
0.52059555 0.35654294 -0.40396211
0.11659181 0.3649722 -0.40618557
0.12060112 0.36561707 -0.40328497
0.51476669 0.3654584 -0.40492222
0.52001977 0.36176944 -0.40240464
0.11733872 0.37501249 -0.40614578
0.1233418 0.3751421 -0.40560678
0.51553106 0.37494686 -0.40502265
0.11626887 0.38575077 -0.40478396
0.12308192 0.38504916 -0.40502733
0.51622248 0.38464132 -0.40544236
0.11582494 0.39494324 -0.40465495
0.12498969 0.39538884 -0.40685409
0.51526022 0.3947193 -0.40454638
0.11660916 0.40545118 -0.40614873
0.1265009 0.40554091 -0.40806964
0.5167135 0.40511978 -0.40532294
0.11700195 0.41294971 -0.40623727
0.12391955 0.41593799 -0.40696409
0.51726329 0.41544804 -0.40524983
0.11753875 0.42599991 -0.40511453
0.12371325 0.4243243 -0.40561956
0.51617277 0.42490783 -0.40579417
0.11589414 0.43506187 -0.40501687
0.12290472 0.43468311 -0.40337917
0.51619124 0.43451542 -0.40667614
0.11799961 0.44532394 -0.40578011
0.12401026 0.44474921 -0.40497604
0.51635468 0.44503221 -0.40560082
0.11758167 0.45469314 -0.40517879
0.1233806 0.45573166 -0.40380067
0.51692629 0.45499399 -0.40663072
0.11727941 0.46581367 -0.40608594
0.12192947 0.46489406 -0.40382403
0.51697862 0.46468401 -0.40667456
0.52135229 0.46563271 -0.40738213
0.11835933 0.47457308 -0.40493631
0.12364256 0.47699699 -0.4023456
0.51710463 0.4753105 -0.4065024
0.52108634 0.47420841 -0.4068732
0.11840957 0.48491237 -0.40521634
0.12610483 0.48462096 -0.40372235
0.13070542 0.48372567 -0.40613917
0.51827788 0.48475379 -0.40873832
0.52191973 0.48476982 -0.40754876
0.11791182 0.49428111 -0.40564427
0.12311012 0.49608499 -0.40292349
0.13114303 0.49550343 -0.40669706
0.51771295 0.49457589 -0.40630516
0.52296531 0.49574691 -0.40732446
0.11788303 0.50339705 -0.40683106
0.12375075 0.50536281 -0.40284941
0.13041312 0.50678569 -0.40368959
0.51717293 0.50473648 -0.40695858
0.52248478 0.50552565 -0.40614334
0.11950821 0.51486427 -0.40046149
0.12325847 0.51328284 -0.40578738
0.51791203 0.51508135 -0.40730181
0.52295458 0.51520038 -0.4063012
0.11935669 0.52000165 -0.40085661
0.1232537 0.52599412 -0.40559915
0.51937139 0.52477777 -0.40881079
0.52393126 0.52531534 -0.40744427
0.11961293 0.53985131 -0.40845826
0.12228292 0.53476083 -0.40468395
0.13080275 0.53746957 -0.40075698
0.51758075 0.53836852 -0.40760517
0.52358496 0.53502136 -0.40782073
0.11967492 0.54222065 -0.40845826
0.12245893 0.54507142 -0.40462515
0.13158447 0.54727817 -0.40084207
0.51643288 0.54468662 -0.40701836
0.52134848 0.54472077 -0.40456668
0.12429303 0.55469519 -0.40423968
0.1343205 0.55520189 -0.4033035
0.51855743 0.55491239 -0.40781775
0.52172971 0.55487812 -0.40495077
0.12449753 0.56435573 -0.4033089
0.13553393 0.56470877 -0.40436789
0.51814246 0.56349874 -0.40834031
0.52223825 0.56529492 -0.405343
0.12303686 0.5752753 -0.40561426
0.1343298 0.57397908 -0.40303439
0.52323091 0.57466519 -0.40692878
0.12458962 0.58539617 -0.40517598
0.13394034 0.58542609 -0.40214217
0.14327025 0.58748031 -0.40824369
0.51876605 0.58867455 -0.40418038
0.52178741 0.58402109 -0.40606692
0.12579298 0.59454012 -0.40494087
0.13593757 0.5943135 -0.40214899
0.14182526 0.59112149 -0.40655202
0.51900184 0.59385276 -0.40602446
0.52116406 0.59693766 -0.40405846
0.1250459 0.60539758 -0.4049795
0.13658708 0.60349989 -0.40252289
0.14040869 0.60759902 -0.40404022
0.51920903 0.60206032 -0.40856856
0.52291739 0.60512763 -0.40644541
0.12793136 0.61445415 -0.40590405
0.13843173 0.6155169 -0.40404832
0.14040476 0.61177707 -0.40345111
0.51973975 0.61698556 -0.40922153
0.52351773 0.61498499 -0.40675589
0.12784404 0.62631887 -0.40616781
0.13144952 0.62334394 -0.40507412
0.14157885 0.62526262 -0.40529951
0.51995158 0.62184614 -0.40830788
0.52263737 0.62516975 -0.40575707
0.12670255 0.63478601 -0.40557277
0.13321781 0.63463116 -0.40248844
0.1413359 0.63379037 -0.40459815
0.51840031 0.63778818 -0.40686199
0.52248132 0.63437545 -0.40568584
0.12727278 0.64466965 -0.40436587
0.13492185 0.64361399 -0.40087396
0.51883805 0.64532179 -0.40603173
0.52115512 0.64336759 -0.40209857
0.12851965 0.65599412 -0.40445018
0.13092089 0.65382707 -0.40485668
0.14517885 0.65436614 -0.40376261
0.1684373 0.65881175 -0.40868643
0.20110452 0.65970409 -0.40212119
0.21528029 0.6596204 -0.40264422
0.22966748 0.65735161 -0.40381137
0.2302987 0.65786767 -0.40253291
0.24124295 0.6581372 -0.40918925
0.34345984 0.65784013 -0.40138552
0.35079587 0.6590507 -0.4046526
0.36239457 0.65935183 -0.40658423
0.37147987 0.65817112 -0.40248597
0.39066339 0.65916324 -0.40834713
0.40118277 0.65810955 -0.40076995
0.41528201 0.65845549 -0.40288049
0.43529868 0.65939981 -0.40879813
0.44360065 0.65860051 -0.4040722
0.45765638 0.65814376 -0.40496323
0.47163117 0.65791249 -0.40532985
0.48358583 0.6562562 -0.40145099
0.49400234 0.65615582 -0.40500244
0.50824153 0.65551811 -0.40757105
0.51430619 0.65278161 -0.40484148
0.52028549 0.65174186 -0.40797806
0.12506622 0.66428328 -0.40637955
0.13104951 0.6654982 -0.40969563
0.15199763 0.66173446 -0.40232545
0.16850179 0.66127646 -0.40868646
0.17840463 0.66669679 -0.40083742
0.19309765 0.664958 -0.40464458
0.2021262 0.66326159 -0.40591377
0.21305484 0.6613906 -0.40416995
0.24131143 0.66075391 -0.40918925
0.3491019 0.66079569 -0.40098855
0.35085523 0.66132265 -0.4046526
0.36243963 0.66107148 -0.40658423
0.37605548 0.6613512 -0.40860417
0.39074004 0.66208988 -0.40834713
0.41505742 0.66151917 -0.40804127
0.43536198 0.66181576 -0.40879816
0.44283772 0.66103351 -0.4056839
0.45890522 0.6610117 -0.40840268
0.46353137 0.66722381 -0.40046081
0.49159169 0.66080785 -0.4097046
0.12835008 0.67358661 -0.4044297
0.1306448 0.67652571 -0.40435046
0.19263387 0.67511427 -0.40389314
0.20397848 0.67552209 -0.40568304
0.13501847 0.68407995 -0.40397444
0.20437419 0.68409675 -0.40888178
0.22272128 0.68260902 -0.40755549
0.3596338 -0.050588965 -0.39729083
0.36139762 -0.050704837 -0.39437976
0.13157195 -0.0409787 -0.39616618
0.14484107 -0.041852653 -0.39112177
0.35700655 -0.044397533 -0.39231223
0.36134326 -0.048055381 -0.3932865
0.45558882 -0.040844738 -0.39183939
0.46431327 -0.040883124 -0.39382172
0.47509038 -0.041870594 -0.39291242
0.48500431 -0.041010976 -0.39155003
0.49569559 -0.04365778 -0.39276254
0.50298727 -0.042197049 -0.39139113
0.12690341 -0.032592297 -0.39452517
0.13125169 -0.036910743 -0.39702824
0.1448921 -0.03990379 -0.3911218
0.30036074 -0.034640282 -0.39025566
0.3370415 -0.033429146 -0.39149493
0.34047347 -0.035557359 -0.39184019
0.35330331 -0.038857102 -0.39047772
0.36139894 -0.034078687 -0.39038715
0.37522697 -0.033541828 -0.3914597
0.38392925 -0.035052687 -0.39089996
0.42437041 -0.031276047 -0.39315709
0.43030846 -0.032948643 -0.3942892
0.44994962 -0.030585706 -0.39343715
0.45659685 -0.035379022 -0.39309439
0.46390224 -0.034165174 -0.39401439
0.4752605 -0.036046445 -0.3943623
0.48467672 -0.03507629 -0.39394814
0.49555767 -0.035645992 -0.3957777
0.5033586 -0.035008639 -0.39368823
0.12449849 -0.024261147 -0.39375097
0.13714308 -0.024384677 -0.39381516
0.14110959 -0.023630112 -0.39719436
0.18744785 -0.022165835 -0.39079913
0.1959455 -0.021856397 -0.39770275
0.20828485 -0.022075295 -0.39479896
0.21275675 -0.025657535 -0.39646789
0.29667723 -0.020619452 -0.39094236
0.30651176 -0.021007389 -0.39105523
0.31576753 -0.022327483 -0.39057851
0.33577007 -0.022502214 -0.39082304
0.34666228 -0.023220837 -0.39152634
0.35568511 -0.022556186 -0.39122969
0.36532342 -0.020813435 -0.39171675
0.37969077 -0.020325214 -0.39113352
0.39528632 -0.021067768 -0.39188766
0.41792858 -0.023279399 -0.39166889
0.42370999 -0.025770724 -0.39201117
0.43397748 -0.024421453 -0.39318502
0.44462585 -0.025490612 -0.394912
0.45535421 -0.027045667 -0.39586243
0.46607566 -0.024926066 -0.394759
0.47330117 -0.024053991 -0.39190233
0.48569047 -0.024564505 -0.39344671
0.49488962 -0.0255557 -0.39194813
0.50367689 -0.026597023 -0.39089271
0.12369734 -0.015405506 -0.39394233
0.13472861 -0.018085569 -0.39295942
0.14432853 -0.010483921 -0.39568287
0.1528827 -0.012494683 -0.39809585
0.187639 -0.013885081 -0.39478073
0.19730967 -0.014131755 -0.3956522
0.20484656 -0.014155895 -0.39444321
0.3116051 -0.010850489 -0.3974027
0.33501524 -0.015054524 -0.39212677
0.34215933 -0.019223869 -0.39073551
0.35672843 -0.013502985 -0.39248234
0.36708403 -0.016474903 -0.39293689
0.37336993 -0.015096784 -0.39228603
0.38548982 -0.014796108 -0.39288384
0.39434946 -0.016368538 -0.39307868
0.40598762 -0.013629436 -0.39181659
0.41679025 -0.014889568 -0.39374441
0.42027676 -0.016504914 -0.39515558
0.43317342 -0.017607659 -0.39393535
0.44343781 -0.015971333 -0.39574948
0.45526481 -0.016545236 -0.39796796
0.46450591 -0.01678291 -0.39600736
0.47487497 -0.017273068 -0.39560643
0.48626399 -0.017390311 -0.39372727
0.49600589 -0.015904725 -0.39473709
0.50408697 -0.01320979 -0.3936834
0.1247645 -0.005946666 -0.39556602
0.1349681 -0.0062089562 -0.39774337
0.1433385 -0.0092453063 -0.3919487
0.18525922 -0.0090899765 -0.3931486
0.19360453 -0.0092512369 -0.39591426
0.2079258 -0.0089442134 -0.39440691
0.21694618 -0.0075163841 -0.39562777
0.30694008 -0.0092017651 -0.39543113
0.31640393 -0.0084215105 -0.39562142
0.33890378 -0.0092732012 -0.3957032
0.38628876 -0.0098085999 -0.39108965
0.39034164 -0.0081659853 -0.39062598
0.41189861 -0.0091771781 -0.39069569
0.50774944 -0.0076366961 -0.39457008
0.51282501 -0.0032442212 -0.39473236
0.12518436 0.0050615966 -0.39625219
0.1334095 0.0019960701 -0.39958069
0.51394188 0.0052326918 -0.39485079
0.12702835 0.015427768 -0.39856061
0.50927174 0.015437037 -0.39398298
0.51210105 0.01421538 -0.39477831
0.12734884 0.023074389 -0.39929321
0.50999296 0.028587699 -0.39059219
0.51311016 0.025388747 -0.39587805
0.52117479 0.029465348 -0.39155906
0.1226716 0.034715801 -0.39887321
0.51705468 0.034496158 -0.39620188
0.52328897 0.03531906 -0.39274415
0.51511526 0.045532972 -0.39497319
0.52325308 0.042566627 -0.39256084
0.12464142 0.055933267 -0.39752248
0.13165545 0.05812645 -0.3991228
0.5152632 0.054870576 -0.39439535
0.52056086 0.056046575 -0.39063022
0.12559748 0.06400761 -0.39745879
0.13048494 0.063175797 -0.39755511
0.51450455 0.065013826 -0.39391485
0.52496564 0.064693093 -0.39265662
0.12671983 0.071140975 -0.39829981
0.51432633 0.074822754 -0.3939836
0.52189016 0.074073046 -0.39174104
0.12739074 0.086088806 -0.39934143
0.51478982 0.085371822 -0.39544737
0.52383554 0.085985243 -0.39185166
0.12683386 0.091306865 -0.39916477
0.51369512 0.095045179 -0.39536482
0.52479434 0.094536543 -0.39174974
0.12631488 0.10454938 -0.39954329
0.51309919 0.10565592 -0.39438757
0.52600038 0.10456035 -0.39210412
0.12603021 0.11326899 -0.39958245
0.51389766 0.1147536 -0.39457852
0.52248585 0.11510393 -0.39089873
0.50960279 0.12903918 -0.39074776
0.51348412 0.12406148 -0.39503968
0.52559996 0.12511513 -0.39214274
0.50971723 0.13349243 -0.39100394
0.51196444 0.13568388 -0.39524457
0.52684665 0.13532548 -0.3928369
0.11921132 0.14447851 -0.39915612
0.12257922 0.1464064 -0.39901066
0.51234341 0.14538972 -0.39451221
0.52566111 0.14511758 -0.39181492
0.12507236 0.15406768 -0.39979714
0.51326525 0.15464889 -0.39397976
0.52572894 0.1547886 -0.3916837
0.51254714 0.16476025 -0.39399779
0.52484977 0.1641345 -0.39134431
0.12123555 0.17637444 -0.39900035
0.51341391 0.17493117 -0.39375228
0.52539897 0.17659257 -0.3916668
0.51309109 0.18479666 -0.39343309
0.52570629 0.18467347 -0.39159876
0.12269992 0.19339785 -0.39961681
0.51318777 0.19527683 -0.39407599
0.52367544 0.19431856 -0.39087519
0.51532853 0.20563579 -0.3944267
0.52507293 0.20562401 -0.39095491
0.51538825 0.21486807 -0.3934063
0.5262171 0.21428142 -0.39152366
0.5165484 0.22452243 -0.3939366
0.11658508 0.23692581 -0.39947629
0.51473904 0.23454963 -0.39289978
0.11605811 0.24214768 -0.39939427
0.51360738 0.24499092 -0.39221507
0.1185258 0.25637141 -0.39975381
0.51395535 0.25530434 -0.39215732
0.52599871 0.25453499 -0.39002377
0.5087359 0.26914191 -0.39057535
0.51416636 0.26481432 -0.39330623
0.1176964 0.27342492 -0.39899278
0.50913382 0.27423057 -0.39076602
0.51509213 0.27602494 -0.39506152
0.52060795 0.27501756 -0.39046672
0.5153966 0.28484002 -0.39323479
0.52064693 0.28908393 -0.39023194
0.51500273 0.29496503 -0.39238593
0.52172422 0.29808119 -0.39083186
0.51446056 0.30494559 -0.39325169
0.522861 0.30558756 -0.39098462
0.51449633 0.31488544 -0.39400035
0.52167761 0.31341976 -0.39051244
0.114613 0.3243643 -0.39931142
0.51359999 0.32545239 -0.3939651
0.52368665 0.32687506 -0.39124936
0.51471674 0.33522937 -0.39403433
0.52455366 0.33378023 -0.39140528
0.51494277 0.34503889 -0.3944779
0.52383971 0.3454206 -0.39079115
0.51390636 0.35407165 -0.39377466
0.5233537 0.3539511 -0.39075649
0.51297486 0.36456746 -0.39325774
0.52511907 0.3698824 -0.3903594
0.51277924 0.37504256 -0.39243773
0.52686036 0.37569442 -0.39084241
0.51600838 0.38549393 -0.39331847
0.52577198 0.38350186 -0.3909556
0.51669908 0.39469177 -0.39347154
0.52367008 0.39469174 -0.39060566
0.51700974 0.40455058 -0.39340314
0.52031791 0.40014648 -0.39101806
0.51524448 0.41487563 -0.39317256
0.11686677 0.42602149 -0.39951262
0.51623261 0.42486593 -0.39450669
0.52475798 0.42647851 -0.39103723
0.11697143 0.43292677 -0.39942744
0.51498735 0.43487766 -0.39496043
0.52573979 0.43467987 -0.39145219
0.51533401 0.44456881 -0.39446712
0.52314222 0.44219047 -0.39108822
0.51362133 0.45500669 -0.39496902
0.52189982 0.45763573 -0.39107278
0.51487613 0.46517789 -0.39442959
0.5242449 0.46542895 -0.39127523
0.12069041 0.47447652 -0.39908934
0.51557827 0.47476068 -0.39437127
0.5247767 0.47510707 -0.39166069
0.11858284 0.48587814 -0.39967918
0.12066782 0.48655647 -0.39914811
0.51479292 0.48493415 -0.3955076
0.52372289 0.48472863 -0.39120534
0.11873662 0.4910793 -0.39969882
0.12271351 0.49878812 -0.39971566
0.51548767 0.49526656 -0.39503947
0.52406263 0.49582529 -0.39112964
0.12318599 0.50205255 -0.39935875
0.51541364 0.50532717 -0.39467919
0.5250901 0.50357735 -0.39121759
0.11838824 0.51480782 -0.3986133
0.12213224 0.51507467 -0.39730477
0.51369905 0.51466727 -0.39381811
0.52491391 0.51451421 -0.39042023
0.12327492 0.52396584 -0.39715856
0.51578677 0.52531642 -0.3942543
0.52453089 0.52729654 -0.39010149
0.12361306 0.53575701 -0.39733103
0.13109106 0.53810942 -0.39929253
0.51448143 0.53400087 -0.39399698
0.52453613 0.53174031 -0.39002207
0.12553835 0.54410249 -0.3968839
0.13068318 0.54041398 -0.39905855
0.5145731 0.54557484 -0.39355099
0.12699193 0.5566839 -0.3986896
0.51414847 0.55458128 -0.39310655
0.12548828 0.56554592 -0.39772931
0.51753986 0.5651527 -0.39357495
0.52222371 0.56758457 -0.39667568
0.12249833 0.5748378 -0.39619407
0.13195693 0.57768697 -0.39916718
0.51615405 0.57504308 -0.39373425
0.52342939 0.57194012 -0.39249712
0.12539661 0.58326101 -0.39767462
0.13173258 0.58091819 -0.39904606
0.51703525 0.58581454 -0.39341122
0.52036464 0.58553666 -0.3906647
0.12676561 0.59494889 -0.39766374
0.13231617 0.59697306 -0.39916608
0.51678252 0.5948658 -0.39346957
0.12816781 0.60488707 -0.39881006
0.13233924 0.60616344 -0.39907974
0.51800907 0.60442108 -0.39341602
0.52061474 0.60754669 -0.39765322
0.12759769 0.61385125 -0.39801842
0.13143933 0.6142844 -0.39841646
0.51820779 0.61625564 -0.39548832
0.52067518 0.61184657 -0.39813253
0.12952769 0.62701416 -0.39922035
0.13202929 0.62527847 -0.39888036
0.51775646 0.62530077 -0.39441007
0.12794209 0.63807917 -0.39720139
0.13207906 0.63575876 -0.39803132
0.51616442 0.63419503 -0.393473
0.12808782 0.64541632 -0.39579156
0.13373011 0.64540553 -0.39636019
0.50851607 0.64899468 -0.39168307
0.51491201 0.64568353 -0.39500841
0.12760359 0.65494132 -0.39384297
0.13421094 0.65414202 -0.39178458
0.14413756 0.65868294 -0.39628789
0.20562679 0.65799493 -0.39311963
0.21352756 0.65483141 -0.39181665
0.31559253 0.6567235 -0.39437792
0.32747942 0.65718758 -0.39568666
0.33425409 0.65758896 -0.39229867
0.34431332 0.6576429 -0.39408293
0.35347581 0.65670329 -0.39327571
0.36635733 0.65891504 -0.39251277
0.37076533 0.65746397 -0.39694935
0.38303113 0.65695667 -0.39454091
0.39626837 0.65776044 -0.39420125
0.40446877 0.65822577 -0.3953155
0.41685915 0.65830493 -0.3946133
0.42096555 0.65548003 -0.39303493
0.43556905 0.65709519 -0.39257514
0.44737792 0.65810055 -0.39349517
0.45588803 0.6565088 -0.39556691
0.46495271 0.65680218 -0.39521343
0.47467077 0.65783322 -0.39475596
0.48377132 0.65645361 -0.39404368
0.49457896 0.6562295 -0.39573577
0.50533926 0.65320963 -0.3954303
0.51107574 0.65180075 -0.39811954
0.1272831 0.6647141 -0.39491275
0.13308913 0.66611874 -0.39117196
0.14372551 0.66350853 -0.39256802
0.15271384 0.66367418 -0.39310458
0.17731231 0.66745138 -0.39699656
0.18024778 0.66745353 -0.3960306
0.19581705 0.66395986 -0.39468366
0.20546049 0.66416192 -0.39509434
0.21133745 0.66680479 -0.39338186
0.30741966 0.6665222 -0.39159033
0.31260222 0.66764337 -0.39191866
0.32805693 0.66001546 -0.39002696
0.33862329 0.66374201 -0.39343485
0.34381974 0.66476369 -0.39188373
0.35521853 0.66527343 -0.39216655
0.36523986 0.66461539 -0.39117515
0.37633014 0.66684556 -0.39403069
0.38634396 0.66506159 -0.39395627
0.39499927 0.66324711 -0.39320624
0.4012264 0.66635597 -0.39400202
0.4171809 0.66077483 -0.39377648
0.42637002 0.66583151 -0.39077795
0.43860805 0.66715765 -0.39026776
0.44647145 0.66322529 -0.39289504
0.45560837 0.66243237 -0.39523244
0.46230209 0.66605407 -0.39482507
0.47514236 0.66539592 -0.39479402
0.48501277 0.66539717 -0.39348018
0.49276853 0.66503394 -0.39173636
0.50089061 0.66875994 -0.39110634
0.1281352 0.67413503 -0.39476222
0.13610518 0.67005181 -0.39013031
0.17379445 0.67282176 -0.3980304
0.18189371 0.67223871 -0.39580515
0.19588715 0.67330182 -0.39332241
0.20735937 0.67281854 -0.39432278
0.21339428 0.67194176 -0.39108527
0.31403214 0.67035043 -0.39241087
0.32399875 0.6786176 -0.39033705
0.34482753 0.67131197 -0.39063299
0.35541904 0.67671072 -0.39073449
0.36861169 0.67062891 -0.39052022
0.38398099 0.67176276 -0.39709172
0.39453125 0.67580664 -0.39107478
0.40653801 0.67438501 -0.39090222
0.41089463 0.67456245 -0.3905527
0.43502605 0.67326593 -0.3924951
0.44173384 0.67601985 -0.39550066
0.46130943 0.67065084 -0.3949132
0.48530984 0.67149633 -0.39252427
0.49572027 0.6732474 -0.39292476
0.50073779 0.67118752 -0.39094776
0.13219196 0.68196726 -0.39597893
0.19663876 0.68130767 -0.39196327
0.33239472 0.68141139 -0.39116031
0.3557682 0.68204403 -0.39105693
0.1454767 -0.041869313 -0.38980517
0.28924042 -0.042007387 -0.38349512
0.29828268 -0.043312818 -0.38722637
0.30710274 -0.042977124 -0.38701189
0.3149246 -0.042351753 -0.38621449
0.3323676 -0.04317531 -0.38234264
0.34425586 -0.04288727 -0.38796622
0.35681045 -0.042295635 -0.38954073
0.36223161 -0.042294174 -0.38478604
0.37730169 -0.04156965 -0.38454765
0.38738906 -0.042730451 -0.386792
0.39876056 -0.040719181 -0.38400242
0.4011457 -0.040993154 -0.38146785
0.41467643 -0.044354379 -0.38764286
0.47925782 -0.042246372 -0.38966188
0.4858247 -0.041032463 -0.38985071
0.50575137 -0.041346252 -0.38501516
0.12250787 -0.034591913 -0.38330522
0.1378938 -0.033220321 -0.38424173
0.14149702 -0.036971211 -0.38549924
0.28871143 -0.034698069 -0.38286284
0.29533035 -0.036195815 -0.38717613
0.30412996 -0.034872532 -0.38534573
0.31542474 -0.037817061 -0.38471413
0.32447189 -0.034424543 -0.38614231
0.3351894 -0.035247713 -0.38631815
0.34461278 -0.03427431 -0.38641268
0.35448563 -0.034863949 -0.38607097
0.36482787 -0.03606683 -0.38445488
0.37519109 -0.033919126 -0.38612971
0.38362777 -0.035551369 -0.3851077
0.39572406 -0.034390062 -0.38361689
0.40440202 -0.035088837 -0.3825154
0.41594625 -0.032672882 -0.38434935
0.42438745 -0.032430261 -0.38233674
0.43566465 -0.032311857 -0.38117015
0.44367659 -0.031322539 -0.38720235
0.47933972 -0.039115995 -0.38966185
0.48590708 -0.037888318 -0.38985071
0.50669181 -0.035003334 -0.38534984
0.11945307 -0.027507573 -0.38015434
0.1245414 -0.025926709 -0.38662571
0.13599628 -0.025215417 -0.38466078
0.14215595 -0.024129748 -0.38715395
0.17745286 -0.02103743 -0.38214058
0.18694967 -0.022083461 -0.38818821
0.19567263 -0.023118198 -0.38649452
0.20593804 -0.023705304 -0.38648662
0.28818238 -0.027392983 -0.38223055
0.29607356 -0.024781018 -0.38716483
0.30211842 -0.0240089 -0.3856495
0.31441075 -0.022051603 -0.38498875
0.32454067 -0.025701642 -0.38642237
0.33569121 -0.026046365 -0.38808516
0.3456642 -0.02649793 -0.3855986
0.35672331 -0.024227023 -0.38491449
0.36477315 -0.023919076 -0.38348135
0.37640238 -0.025307298 -0.38413599
0.38475144 -0.02370891 -0.38396642
0.39662743 -0.023871243 -0.38520834
0.40441775 -0.02451694 -0.38456875
0.41181409 -0.021014661 -0.38864693
0.42593169 -0.028546035 -0.38604364
0.43272638 -0.028503835 -0.38632479
0.47356915 -0.024830431 -0.38972047
0.49667692 -0.023738086 -0.3890602
0.50596523 -0.025047451 -0.38632563
0.51078188 -0.026770264 -0.38291863
0.12567931 -0.012681812 -0.38776499
0.13378143 -0.01505515 -0.38529593
0.14240563 -0.011102915 -0.38311324
0.16973442 -0.016229779 -0.38691086
0.17185163 -0.016091883 -0.38642725
0.18290675 -0.011318594 -0.38867247
0.19178063 -0.019284278 -0.38761565
0.2052651 -0.015244007 -0.38512453
0.2959981 -0.014313787 -0.38491431
0.30674291 -0.016258627 -0.38545835
0.31501466 -0.015850961 -0.38505343
0.32475513 -0.01494813 -0.38813016
0.3341887 -0.014191419 -0.38686675
0.34345144 -0.014281005 -0.38467747
0.35524309 -0.015480578 -0.38891304
0.36854041 -0.019164115 -0.38660446
0.37486804 -0.014882684 -0.38931251
0.3869729 -0.014046133 -0.38838041
0.39587116 -0.015073568 -0.38854331
0.40387082 -0.016220093 -0.38776422
0.41295767 -0.014046609 -0.38794601
0.42031157 -0.017316401 -0.38997877
0.49479735 -0.017561734 -0.38901275
0.50491393 -0.014815032 -0.38523725
0.12750709 -0.0083443224 -0.38709557
0.13392329 -0.0087017417 -0.38206166
0.18297243 -0.0088073909 -0.3886725
0.20546192 -0.0066640377 -0.38449246
0.2950899 -0.0084334016 -0.38312399
0.30408835 -0.0076959729 -0.38292438
0.31529266 -0.0079531968 -0.38576245
0.32485449 -0.0093222857 -0.38808927
0.33461374 -0.0086461902 -0.38418126
0.34585983 -0.0078778863 -0.38607088
0.38795209 -0.0099960566 -0.38948965
0.39254284 -0.0083708167 -0.38797399
0.41332626 -0.0091857612 -0.38736066
0.50739551 -0.0076905489 -0.38401416
0.51608002 -0.0036978424 -0.38665456
0.52164817 -0.0052960515 -0.38865182
0.51594388 0.0052489042 -0.38704696
0.50859833 0.016130924 -0.38828272
0.51407969 0.014998943 -0.38555339
0.5074414 0.024158865 -0.38537779
0.51431584 0.026274621 -0.38493705
0.52340543 0.029318243 -0.38847524
0.52428198 0.034015954 -0.38887677
0.5197835 0.047831625 -0.38945505
0.52319002 0.04557091 -0.38841078
0.51986754 0.051041186 -0.38945505
0.52160788 0.054778308 -0.3875128
0.52501583 0.063306004 -0.38898319
0.51445198 0.077333242 -0.38932571
0.5216254 0.075788826 -0.38759637
0.5147078 0.085198194 -0.3889192
0.52471435 0.085076958 -0.38824782
0.5140779 0.095195323 -0.38868487
0.52666771 0.095892131 -0.38854632
0.51440942 0.10373193 -0.38872933
0.52786756 0.10499705 -0.38866773
0.51513195 0.11548764 -0.38870782
0.52402246 0.11507493 -0.38732678
0.51395905 0.12565191 -0.38858211
0.52575696 0.12522718 -0.38758567
0.51305032 0.13521209 -0.3884612
0.52551281 0.13491929 -0.38723469
0.51376498 0.14534198 -0.38862768
0.52338421 0.144767 -0.38555324
0.51519322 0.1557534 -0.38875127
0.52213573 0.15515092 -0.38448191
0.51386046 0.16454175 -0.38783336
0.52345681 0.1653515 -0.38677698
0.5162456 0.17381206 -0.38769805
0.5223037 0.17403579 -0.38526759
0.51545167 0.18538089 -0.38824382
0.52317798 0.18652838 -0.38541365
0.51466131 0.1950693 -0.38825339
0.52340281 0.19383816 -0.38705158
0.5165416 0.2045628 -0.38855764
0.52513492 0.2039381 -0.38899118
0.51781309 0.21560937 -0.38842258
0.52591908 0.21596761 -0.38947394
0.51841938 0.22487476 -0.38836506
0.5249486 0.22517844 -0.38834962
0.51682639 0.2350411 -0.38750485
0.52396059 0.23462069 -0.38739827
0.5163027 0.24492691 -0.38718781
0.52308536 0.24488267 -0.3865892
0.51789355 0.25500181 -0.38805702
0.52542174 0.25517744 -0.38798353
0.50956452 0.26912022 -0.38885903
0.51729071 0.2657783 -0.38801566
0.52408397 0.26538888 -0.38691571
0.50964785 0.27229589 -0.38885903
0.51467681 0.27507973 -0.3888309
0.52402127 0.27478462 -0.38810363
0.51877391 0.28341585 -0.38855109
0.52226603 0.28514221 -0.38598534
0.51731265 0.29445139 -0.38930115
0.52250123 0.29460144 -0.38731733
0.51659441 0.30574623 -0.38909185
0.52424061 0.30496356 -0.38749769
0.51551831 0.31574148 -0.38873637
0.52175522 0.31542483 -0.38621151
0.51600945 0.32482028 -0.38883185
0.52292287 0.32448649 -0.38663509
0.51663756 0.33575022 -0.38876745
0.52427649 0.33488184 -0.38681242
0.51717913 0.34504282 -0.3890321
0.52388227 0.34282267 -0.38746792
0.51553583 0.35544983 -0.38855639
0.52395272 0.3553285 -0.38897425
0.51513338 0.36464718 -0.387894
0.52468216 0.36544535 -0.38865504
0.51582515 0.37454206 -0.38828057
0.52713335 0.37437597 -0.38894835
0.51769042 0.3851316 -0.38955835
0.52430928 0.38518167 -0.38884816
0.51980853 0.39108425 -0.38927642
0.52395666 0.39529777 -0.3888135
0.51779938 0.40927613 -0.38827267
0.52282751 0.40443158 -0.38796195
0.51752031 0.41471085 -0.3881492
0.52231729 0.41504735 -0.38627675
0.51708412 0.42601943 -0.38976344
0.52485824 0.42411789 -0.38873756
0.51717436 0.43469679 -0.38966522
0.52759171 0.43533897 -0.38912442
0.53015983 0.43430519 -0.38963661
0.51574922 0.4466024 -0.38899773
0.52272308 0.44543034 -0.38713375
0.51462853 0.45470393 -0.38851056
0.52209055 0.45477998 -0.38662413
0.51493275 0.46432656 -0.3885293
0.52427471 0.46427077 -0.38679817
0.51606369 0.47617552 -0.38880157
0.52345967 0.47474948 -0.38621461
0.51385903 0.48477554 -0.38788772
0.52397621 0.48516697 -0.38685441
0.51481843 0.49508011 -0.38838288
0.52436137 0.494663 -0.38693464
0.51445925 0.50530005 -0.38741994
0.52320147 0.50552022 -0.38552043
0.5136373 0.51504397 -0.3869099
0.52336884 0.51507533 -0.38512599
0.51538515 0.52507204 -0.38692319
0.52360678 0.52458155 -0.3852835
0.5126127 0.53534615 -0.3863714
0.52335 0.53437805 -0.38680926
0.51406741 0.54401916 -0.38661602
0.52285326 0.54509151 -0.38702658
0.51497698 0.55503339 -0.38711992
0.52101791 0.55534959 -0.3855271
0.51693749 0.56072021 -0.3871302
0.52358365 0.56609225 -0.38844779
0.51860344 0.5761888 -0.38880378
0.5246917 0.57540071 -0.38821959
0.51852798 0.58237636 -0.38863352
0.52369201 0.58592039 -0.38782543
0.51865983 0.59492922 -0.38772255
0.52267218 0.59497821 -0.38596654
0.51814997 0.60636747 -0.38628453
0.5220046 0.60382581 -0.385245
0.5136764 0.61437249 -0.3852604
0.51599252 0.62508261 -0.385452
0.51673985 0.63474047 -0.38680723
0.52071726 0.63639593 -0.38441679
0.50893676 0.64840841 -0.38662928
0.51310599 0.6440258 -0.3844755
0.5208509 0.64101583 -0.3838093
0.12785566 0.6558165 -0.38791707
0.13353413 0.65790778 -0.38812631
0.20547336 0.65596229 -0.38435039
0.21235782 0.65413892 -0.38570777
0.2966845 0.6534071 -0.3809796
0.30575854 0.65553451 -0.38149366
0.3109566 0.65341926 -0.38096142
0.32441419 0.65610522 -0.38787848
0.33960563 0.65595067 -0.38439664
0.34102994 0.65641361 -0.38405761
0.35632873 0.65730178 -0.38881898
0.36550498 0.65620106 -0.38753325
0.37253737 0.65700364 -0.38683718
0.39807868 0.65716863 -0.38733324
