# .PCD v0.7 - Point Cloud Data file format
VERSION 0.7
FIELDS x y z
SIZE 4 4 4
TYPE F F F
COUNT 1 1 1
WIDTH 1405
HEIGHT 1
VIEWPOINT 0 0 0 1 0 0 0
POINTS 1405
DATA ascii
0.36544937 0.71581578 -0.39304483
0.36442506 0.70924252 -0.39564762
0.36518407 0.032765359 -0.39497033
0.36505842 0.021823287 -0.39001447
0.37456137 0.72573757 -0.39355463
0.37530529 0.71512604 -0.39559764
0.37508827 0.7095021 -0.39555421
0.37085456 0.02276814 -0.39070374
0.37288189 0.020136148 -0.3910045
0.38718426 0.72930801 -0.39931664
0.38259894 0.71399242 -0.3946768
0.38504142 0.70956308 -0.3952359
0.3862825 0.034334719 -0.39372888
0.39183521 0.73221219 -0.39752752
0.39183503 0.729424 -0.39752761
0.39301938 0.71494877 -0.39530611
0.39390671 0.7097615 -0.39458784
0.40644765 0.71403378 -0.39644879
0.40915048 0.71023059 -0.39752021
0.41637659 0.71453243 -0.39623329
0.41647816 0.034087092 -0.39567509
0.423684 0.73323941 -0.39755228
0.42167556 0.7256214 -0.39833304
0.42451108 0.71610016 -0.39474988
0.43461478 0.73356271 -0.3971481
0.43461442 0.73068637 -0.39714813
0.43496251 0.71550226 -0.39778015
0.43514752 0.033328831 -0.39119357
0.44444072 0.71620357 -0.39499229
0.44967794 0.032335877 -0.39819655
0.45585942 0.71572447 -0.39688739
0.45325446 0.035018146 -0.39446804
0.46617794 0.71651047 -0.39510506
0.4750067 0.72151428 -0.39648226
0.47257447 0.71691269 -0.39628783
0.47702229 0.033154517 -0.39953834
0.48288679 0.71469945 -0.39310032
0.48106122 0.71014428 -0.39156199
0.48405373 0.035654455 -0.39751717
0.49482131 0.71298385 -0.39153776
0.49717534 0.03658697 -0.39480367
0.50218081 0.72404599 -0.39474779
0.5010103 0.71468771 -0.39905116
0.5035702 0.69863808 -0.39689925
0.11293507 0.022433758 -0.38883728
0.11293489 0.020231396 -0.38883737
0.12949932 0.70657843 -0.38826361
0.12770385 0.014637232 -0.38945639
0.13802099 0.71091592 -0.38900754
0.13707739 0.70661664 -0.38579541
0.13913733 0.68787783 -0.38899338
0.14769685 0.71190172 -0.38647547
0.14506352 0.70500791 -0.38583112
0.14675403 0.69556618 -0.38397998
0.14034128 0.68686086 -0.38844374
0.15276432 0.71408844 -0.38878068
0.15215623 0.70657688 -0.38449806
0.15417796 0.69467735 -0.38290906
0.1558333 0.0045146048 -0.38405076
0.16564405 0.69740808 -0.38167173
0.16472429 0.023539543 -0.38504654
0.16827488 0.016207844 -0.38556182
0.1665169 0.006038487 -0.38529256
0.16318309 0.00022765994 -0.38121343
0.17128229 0.6986084 -0.38084072
0.17562068 0.023174018 -0.38292751
0.17159319 0.015473366 -0.38261205
0.17173111 0.0079549849 -0.38415727
0.18628037 0.70097721 -0.38692778
0.18628013 0.69862521 -0.38692787
0.19774425 0.71123219 -0.38910753
0.19502878 0.70498693 -0.38341796
0.1903547 0.69912893 -0.38156211
0.20800853 0.71346581 -0.38857499
0.20355535 0.69273806 -0.38787067
0.20501018 0.68943608 -0.38877475
0.20297909 0.022974044 -0.38744205
0.20631558 0.015981883 -0.38511008
0.21029538 0.71666771 -0.38314182
0.21601653 0.7036252 -0.38522935
0.21815556 0.69524753 -0.38657969
0.21875387 0.69061887 -0.38768727
0.21425885 0.025897831 -0.38975996
0.21213007 0.015096366 -0.38634431
0.22010446 0.70243323 -0.38794556
0.22005242 0.69829464 -0.3881644
0.22225422 0.68640971 -0.38726512
0.23016471 0.031585842 -0.38992274
0.22914982 0.0275397 -0.38947067
0.22282606 0.016140342 -0.38596588
0.23242092 0.032051444 -0.38561597
0.23418742 0.025518268 -0.38774189
0.232593 0.016334593 -0.38620517
0.30560678 0.72286093 -0.38425508
0.30759943 0.71875072 -0.38804454
0.30550426 0.70548034 -0.38617855
0.30485845 0.69736588 -0.38158354
0.31550586 0.72334361 -0.3852503
0.31442207 0.71409392 -0.38858494
0.31200832 0.70680594 -0.38780683
0.31714416 0.032955647 -0.38346538
0.31601065 0.025633603 -0.38343686
0.31610936 0.015514851 -0.38187468
0.31600755 0.0089612305 -0.38087484
0.32159442 0.72327411 -0.38385031
0.32336426 0.71634358 -0.38845649
0.32369125 0.70716643 -0.38982308
0.32313049 0.034732193 -0.38406426
0.32534915 0.026037812 -0.38500142
0.32518095 0.017484128 -0.3832157
0.32777214 0.0086386204 -0.38119653
0.33338159 0.72595006 -0.38902432
0.33025968 0.71099007 -0.38836473
0.33025938 0.7083388 -0.38836473
0.33587283 0.035105586 -0.38172096
0.33534455 0.024190098 -0.38467816
0.3348397 0.016403556 -0.38296309
0.33698469 0.0062368214 -0.38192505
0.34031272 0.031576008 -0.38008755
0.34464592 0.024603397 -0.38336155
0.34686244 0.017578006 -0.38210034
0.34376359 0.0060435236 -0.38226834
0.34511197 6.0558319e-05 -0.38076302
0.35322756 0.72466606 -0.38618314
0.35549837 0.71206784 -0.38878936
0.35477167 0.70875573 -0.38865149
0.35572463 0.032873869 -0.3833594
0.35514492 0.025893062 -0.38414738
0.3550325 0.017065376 -0.38294756
0.35673344 0.0071260631 -0.38201979
0.36428213 0.72526956 -0.38722262
0.36608434 0.71314418 -0.38942122
0.36698729 0.035252631 -0.38540059
0.36568761 0.024032623 -0.3859055
0.36522317 0.015946209 -0.3834908
0.36629498 0.0079543293 -0.38296586
0.37525713 0.72817826 -0.38943416
0.37433994 0.024331182 -0.38416845
0.37361425 0.01106146 -0.38191834
0.37567639 0.0064718723 -0.38215813
0.38529563 0.034466475 -0.38331187
0.38523453 0.026161134 -0.38182315
0.38297826 0.011912853 -0.38127515
0.38253677 0.006339401 -0.38107231
0.38175344 0.00057226419 -0.38166806
0.39310884 0.036873221 -0.38253212
0.39466959 0.024510413 -0.38323057
0.40831876 0.032930791 -0.38211432
0.40625405 0.024988532 -0.38402811
0.4053036 0.020134807 -0.38443288
0.41679955 0.033692271 -0.38660714
0.41584897 0.02515617 -0.38483748
0.41563535 0.020384461 -0.38087258
0.42434561 0.032999098 -0.38304755
0.42451096 0.026090533 -0.38574073
0.42677355 0.014752448 -0.38112304
0.43730593 0.035311401 -0.38401532
0.44214416 0.035728574 -0.38234904
0.44349635 0.024157345 -0.38029981
0.44368839 0.020608455 -0.38092121
0.45649028 0.034905046 -0.38399047
0.45688534 0.025748402 -0.38206127
0.45437467 0.019002348 -0.38084826
0.46766496 0.71311134 -0.38660339
0.4676646 0.71017754 -0.38660342
0.46335399 0.035151422 -0.38486847
0.46573138 0.024995923 -0.38265383
0.46354425 0.019718587 -0.3806963
0.47425222 0.71458101 -0.38720191
0.47441423 0.038023174 -0.38424888
0.47072041 0.022701234 -0.38058844
0.48623002 0.71402836 -0.38677686
0.48413873 0.70828545 -0.38373235
0.4807328 0.04186815 -0.38049182
0.48280668 0.037235767 -0.38365152
0.49158776 0.71795225 -0.38915199
0.4916048 0.70203644 -0.38843757
0.49160445 0.69964826 -0.3884376
0.13944894 0.70870674 -0.3700709
0.1433847 0.71194327 -0.37591273
0.14643437 0.70730418 -0.37450233
0.14569855 0.6946578 -0.37367311
0.14877808 0.0045851767 -0.37648466
0.15341401 0.7135123 -0.37271327
0.15418315 0.70666409 -0.37497601
0.1556347 0.6949929 -0.37699494
0.15854681 0.004237175 -0.37838796
0.16047609 0.70642716 -0.37763461
0.16524762 0.69761765 -0.37419599
0.16632545 0.023486614 -0.37260714
0.16851544 0.017861843 -0.37345788
0.16483974 0.0059996843 -0.37574399
0.16379845 0.00022763014 -0.37997928
0.1734612 0.69913101 -0.37933427
0.17538989 0.024501413 -0.3761695
0.17219943 0.014001757 -0.37486643
0.17294025 0.0071919858 -0.3748253
0.18658918 0.70119262 -0.3745558
0.18658894 0.69885278 -0.37455586
0.18391281 0.022662222 -0.37821713
0.18859446 0.01906231 -0.37288469
0.19467217 0.70243955 -0.37248507
0.19281185 0.69924784 -0.37543952
0.19537574 0.01706326 -0.37213519
0.20489174 0.70320642 -0.37775573
0.20856547 0.6980871 -0.37375158
0.20860916 0.68606412 -0.37400877
0.20467383 0.016473442 -0.37393975
0.21276033 0.69474328 -0.37757176
0.21039784 0.68592042 -0.37513632
0.21988517 0.033486605 -0.37087029
0.2202388 0.021340102 -0.37121436
0.21523744 0.017204463 -0.3713634
0.22031444 0.033486545 -0.37000936
0.22425818 0.02526623 -0.37382555
0.22066814 0.020377606 -0.37035304
0.28427196 0.7076202 -0.37140974
0.29044151 0.71693301 -0.37671795
0.29678065 0.033804625 -0.3710281
0.29833472 0.024915665 -0.37196946
0.29624265 0.018769264 -0.37070754
0.30190039 0.037181407 -0.37503573
0.30143708 0.02545768 -0.37462834
0.30827761 0.0035648942 -0.37665346
0.31998736 0.034125507 -0.37950706
0.31704158 0.013452232 -0.37936226
0.31494725 0.0071134865 -0.37737688
0.3244105 0.033631742 -0.37752894
0.32877886 0.030362129 -0.37834981
0.32339489 0.013986111 -0.37875766
0.3260771 0.0052074492 -0.37853116
0.33618313 0.03502509 -0.37850484
0.33703369 0.015929133 -0.37776771
0.3307777 0.0076469779 -0.37939376
0.34213573 0.034314454 -0.37783319
0.3425914 0.030152172 -0.37833527
0.34359062 0.01450035 -0.37879443
0.34660983 0.0057690442 -0.3789885
0.34582794 6.0468912e-05 -0.37932703
0.35829937 0.034040362 -0.37886646
0.35080445 0.013971537 -0.37942994
0.35498601 0.0039534271 -0.37611601
0.35777968 0.00072568655 -0.3784371
0.36417282 0.034317702 -0.3772307
0.36613005 0.024073809 -0.37850648
0.3666544 0.017762721 -0.37859565
0.3660025 0.0037279129 -0.37833604
0.37377125 0.034137398 -0.37740812
0.37688506 0.024521291 -0.37722906
0.37599832 0.01706022 -0.37706029
0.37251931 0.0076326132 -0.37936249
0.38698125 0.034030497 -0.37595797
0.3846882 0.025515497 -0.37756437
0.38496208 0.012842983 -0.37552872
0.3854748 0.0067375004 -0.37750778
0.39415371 0.035708696 -0.37628162
0.39572626 0.024252206 -0.37767512
0.39578944 0.015998721 -0.37613001
0.39535201 0.0065760016 -0.37525797
0.40530002 0.022075653 -0.37429884
0.40358865 0.014968216 -0.37496796
0.40626419 0.0071293414 -0.37524697
0.41809452 0.02460435 -0.37698495
0.41365552 0.016999424 -0.37432888
0.41442645 0.0078442395 -0.37362066
0.42662811 0.033566087 -0.37759447
0.42266977 0.026117682 -0.37507159
0.42494845 0.01464048 -0.37506148
0.42340398 0.0089057684 -0.37335378
0.43590462 0.033199012 -0.37862486
0.43505609 0.02487582 -0.3773337
0.43326712 0.015839666 -0.37419674
0.43492866 0.0085674822 -0.37369144
0.44457221 0.033781469 -0.37818894
0.44470525 0.026499748 -0.3785494
0.44442427 0.015160352 -0.37630171
0.44428515 0.0083417594 -0.37519392
0.45910287 0.037614495 -0.37879872
0.45815516 0.02208966 -0.37880385
0.45572186 0.015223116 -0.37685898
0.45275426 0.010131001 -0.37546065
0.46945429 0.041698784 -0.37792072
0.46385503 0.035714388 -0.37606665
0.46760428 0.027513295 -0.37644848
0.46420908 0.016926438 -0.37669232
0.46204042 0.0085879266 -0.37568679
0.47816801 0.70208257 -0.37854406
0.47816765 0.6991353 -0.37854412
0.4764483 0.034874916 -0.37524369
0.47173941 0.025804937 -0.37509987
0.47246468 0.015457839 -0.37521383
0.47182095 0.0091251433 -0.37680343
0.48152375 0.041868061 -0.3789053
0.48114574 0.03627345 -0.37614542
0.48040485 0.030781835 -0.37304193
0.48121083 0.012161404 -0.37507161
0.48121071 0.010391384 -0.3750717
0.14552933 0.71248233 -0.36526611
0.14443058 0.70896327 -0.3672463
0.14486694 0.69340169 -0.36544776
0.14572054 0.68974149 -0.36386546
0.15486097 0.71110666 -0.36797363
0.15402818 0.70481694 -0.36515921
0.1543594 0.69520962 -0.36314085
0.15694553 0.003924191 -0.3634443
0.1648652 0.69789922 -0.36975762
0.16365582 0.025415003 -0.36433974
0.16613048 0.017690659 -0.36245605
0.16506588 0.005030781 -0.36511439
0.17642087 0.6979152 -0.36171976
0.17679495 0.023313403 -0.36467451
0.17260975 0.011978388 -0.36459646
0.17455101 0.0082123578 -0.36648375
0.18826127 0.70364356 -0.36351901
0.18731403 0.69850081 -0.3608546
0.19601268 0.6982137 -0.36512598
0.19663227 0.022659421 -0.36205015
0.19663197 0.020311594 -0.36205021
0.20079297 0.022115469 -0.36238068
0.20364612 0.017084926 -0.36437872
0.21517289 0.041374087 -0.36503431
0.21517271 0.038984776 -0.36503437
0.21718943 0.019338369 -0.36762381
0.22074372 0.033486456 -0.3691484
0.22109771 0.021339983 -0.36949167
0.22109765 0.020377517 -0.3694917
0.27753597 0.69686937 -0.3651571
0.28246844 0.70320272 -0.36892
0.29002494 0.01308924 -0.36521888
0.29690742 0.034665883 -0.36931083
0.29692912 0.021332026 -0.3693313
0.2941879 0.015646666 -0.36757711
0.3532961 0.0048696399 -0.36927634
0.37729341 0.02254653 -0.36910412
0.37729317 0.019817621 -0.36910415
0.3812601 0.022316605 -0.36886519
0.38135284 0.017910719 -0.36893985
0.39606142 0.021607459 -0.36825186
0.39606118 0.018840641 -0.36825189
0.40299821 0.018420577 -0.36955863
0.46554017 0.048277289 -0.36361682
0.46658611 0.024985999 -0.36518759
0.47169256 0.042161465 -0.36811322
0.47673678 0.033914059 -0.36781168
0.47229326 0.029928863 -0.3664144
0.47431684 0.017191857 -0.36717337
0.14503193 0.71341717 -0.35602963
0.14572382 0.70669448 -0.3556788
0.14586073 0.69413048 -0.35433438
0.15002859 0.7043786 -0.35431468
0.1541521 0.69493651 -0.35633528
0.1546244 0.69057435 -0.35297862
0.15848583 0.025360733 -0.35350189
0.15819949 0.0044771135 -0.35491642
0.16549021 0.69555748 -0.35507262
0.16419899 0.024714977 -0.35560676
0.16606289 0.015586793 -0.35452411
0.16357976 0.0050773323 -0.3548528
0.16177726 -0.00076588988 -0.35272199
0.17273372 0.698228 -0.35576692
0.17563897 0.022275537 -0.35636023
0.17592251 0.01649484 -0.35703281
0.18434459 0.6956619 -0.35444048
0.18779296 0.66810477 -0.3507745
0.18073243 0.021439791 -0.3531298
0.18073243 0.020517468 -0.3531298
0.19025439 0.69211304 -0.35567752
0.19317567 0.68694085 -0.3548229
0.19753987 0.018978626 -0.35170165
0.20239508 0.022414625 -0.35392198
0.20119327 0.019563377 -0.35525396
0.46284831 0.045796126 -0.35740978
0.46635151 0.02760914 -0.35924917
0.13655496 0.70383525 -0.34359413
0.14464587 0.70429546 -0.34457335
0.14603186 0.69708312 -0.34735438
0.14347005 0.6887722 -0.34146428
0.15117496 0.7057519 -0.34403676
0.15572214 0.69231343 -0.34074464
0.15893513 0.024268448 -0.34391597
0.15888244 0.017974943 -0.34200662
0.15885603 0.0085633397 -0.34643093
0.16422796 0.022933781 -0.34621859
0.16462606 0.014405042 -0.34445974
0.16261631 0.0080218017 -0.34732556
0.16247916 -0.00091579556 -0.34950635
0.17528349 0.70145005 -0.34089881
0.17569554 0.69686794 -0.34418896
0.17861277 0.68351233 -0.34113061
0.17784446 0.67233485 -0.3408123
0.17849416 0.66926122 -0.34101564
0.17308486 0.022238255 -0.34530145
0.18265814 0.69173914 -0.34817931
0.18265784 0.68989551 -0.34817931
0.18553215 0.68015134 -0.34731659
0.18375576 0.66796988 -0.34536746
0.18547153 0.022269964 -0.34442452
0.18799525 0.020066559 -0.34488088
0.19324988 0.042177618 -0.34074885
0.19493276 0.03830424 -0.34186661
0.19085556 0.02351734 -0.34103873
0.25839561 0.044480324 -0.34108728
0.26119721 0.041743129 -0.34293824
0.27488816 0.016920596 -0.34350857
0.12697023 0.016894221 -0.33869433
0.13638884 0.71098197 -0.33355713
0.13599873 0.70583862 -0.33563417
0.13962084 0.69299465 -0.33868635
0.1451925 0.71419263 -0.33095577
0.14635521 0.70534074 -0.33435753
0.14429879 0.69485164 -0.33533877
0.14395791 0.68888867 -0.33716094
0.15095389 0.7071076 -0.33295047
0.15481675 0.69190806 -0.33677229
0.15238416 0.68968499 -0.33568299
0.15708381 0.023625642 -0.33737397
0.15613365 0.012640655 -0.33655432
0.15530133 0.0059815049 -0.33635294
0.16520989 0.69221777 -0.33335879
0.16738355 0.68975472 -0.33400324
0.16402543 0.023238063 -0.33458552
0.16498941 0.014815837 -0.33503675
0.1641748 0.0066669583 -0.3338874
0.16900057 -0.0014007688 -0.33188221
0.17213303 0.69671714 -0.33823109
0.17516452 0.68717384 -0.33903649
0.1782794 0.67279851 -0.33952895
0.17910689 0.66926116 -0.33978683
0.17796659 0.3699469 -0.33021042
0.17096442 0.024209946 -0.3306711
0.17125338 -0.0056417286 -0.33337125
0.18054897 0.40592682 -0.33392227
0.18173802 0.052259862 -0.33026281
0.18173784 0.050432444 -0.33026284
0.18721324 0.03547281 -0.33432475
0.18710148 0.021274656 -0.33787936
0.19170791 0.044861525 -0.33834296
0.19199145 0.036652178 -0.33880112
0.23947394 0.69708121 -0.33604655
0.24929899 0.053558499 -0.33238712
0.24788368 0.047310978 -0.33154857
0.24570954 0.039971024 -0.33045334
0.25738567 0.042604268 -0.33913627
0.25117385 0.035505503 -0.33405128
0.13582659 0.70783561 -0.32764494
0.1371001 0.69341308 -0.32894647
0.13367563 0.68696344 -0.32415631
0.13801563 0.011859059 -0.32169789
0.13801533 0.0096740723 -0.32169789
0.14129609 0.7117039 -0.32405534
0.14323306 0.706622 -0.32504174
0.14358437 0.6943953 -0.32643983
0.14446306 0.68901646 -0.32390681
0.15154743 0.70748007 -0.32430765
0.15438896 0.69111931 -0.32979184
0.15346014 0.68920261 -0.32681996
0.15821755 0.02367419 -0.32333741
0.1591627 0.020376861 -0.32327813
0.15586972 0.0029214919 -0.3235977
0.1565699 -0.00023400784 -0.32250753
0.16135788 0.67608643 -0.32275051
0.16036075 0.66971743 -0.32021773
0.16453385 0.62239838 -0.32311416
0.16400486 0.61946821 -0.32259753
0.16788453 0.49351746 -0.32102242
0.16879863 0.48950154 -0.3219094
0.16982663 0.45569134 -0.32470575
0.16507828 0.024264753 -0.32535535
0.16355348 0.015899599 -0.32447457
0.16601396 0.0057860911 -0.326592
0.16588432 0.00013574958 -0.32450488
0.17144805 0.48475364 -0.32515413
0.17191124 0.47550425 -0.32552978
0.17191213 0.46601102 -0.32553154
0.1710391 0.45756277 -0.32437012
0.17233926 0.40354422 -0.32235715
0.17375612 0.39562255 -0.32372645
0.17562675 0.38592046 -0.32553419
0.17668533 0.37520325 -0.32761219
0.17539483 0.36540386 -0.3264733
0.17406493 0.35634911 -0.32522932
0.17349195 0.30342504 -0.32125747
0.17233205 0.29421359 -0.320674
0.17431694 0.28485286 -0.32204798
0.17330509 0.27518311 -0.32174721
0.17295265 0.26569813 -0.32184482
0.17042851 0.25773931 -0.32037896
0.1730594 0.12193501 -0.32069105
0.17454648 0.11547732 -0.32137468
0.1738314 0.11006294 -0.32083738
0.17331553 0.096110433 -0.32059875
0.17234528 0.086028248 -0.32000774
0.17441612 0.074605882 -0.32200229
0.17603844 0.065529794 -0.32356495
0.17472064 0.058233321 -0.32229733
0.17469305 0.033899844 -0.32270965
0.17495531 0.025827199 -0.32502091
0.18500918 0.44808024 -0.32093397
0.1891979 0.35213223 -0.32163656
0.18687308 0.34785897 -0.32064679
0.18234962 0.052259773 -0.3290363
0.18234944 0.050432384 -0.3290363
0.18044549 0.035616368 -0.32660362
0.19146746 0.3909778 -0.32498285
0.19279665 0.38557479 -0.3250272
0.19436884 0.37562808 -0.32651123
0.19437164 0.36594826 -0.32651502
0.19058323 0.35729781 -0.3229427
0.22336775 0.68123829 -0.32090515
0.23045421 0.69085437 -0.32667401
0.23071873 0.68812931 -0.32691258
0.23473978 0.032378048 -0.32071045
0.24635684 0.042387754 -0.32915562
0.24413365 0.034294635 -0.32769537
0.13718802 0.70835394 -0.31258458
0.1389575 0.69220293 -0.31715652
0.13860774 0.6881336 -0.31367546
0.14093059 0.71181965 -0.31984976
0.14452612 0.70674217 -0.3157804
0.14247024 0.69638556 -0.31401023
0.14408368 0.68797255 -0.31366721
0.15207386 0.70740306 -0.31620818
0.1515227 0.69084013 -0.3174459
0.1525076 0.68549043 -0.31440818
0.15582019 0.67594177 -0.31645942
0.15747935 0.66329604 -0.31641322
0.15729445 0.65553582 -0.31607425
0.15689456 0.64551347 -0.31564623
0.15746826 0.63602972 -0.31620789
0.15719908 0.62569129 -0.31594598
0.15357715 0.61613977 -0.31005979
0.1557709 0.59291583 -0.31253392
0.15896904 0.58634472 -0.31548354
0.15899462 0.57580209 -0.3153756
0.15654033 0.56568038 -0.31295159
0.15683305 0.53337383 -0.31059292
0.15864104 0.52561462 -0.31157213
0.15976405 0.51107627 -0.3137345
0.15976375 0.50885463 -0.31373453
0.15932703 0.48596326 -0.31059444
0.15877473 0.47771797 -0.31027627
0.15873492 0.45821956 -0.3103871
0.15903777 0.44661897 -0.31042907
0.15842581 0.42802191 -0.31009144
0.15788263 0.025122672 -0.3159799
0.15808535 0.019661844 -0.31333897
0.1546858 0.0084910691 -0.31062159
0.16120541 0.6714325 -0.31914341
0.16036785 0.66807127 -0.31844476
0.16007876 0.65589523 -0.31816393
0.15999103 0.58262902 -0.31536436
0.16011941 0.57098448 -0.31584531
0.15990049 0.52152878 -0.31150752
0.16129494 0.51601112 -0.31400102
0.16277379 0.50515449 -0.31533754
0.16634136 0.4965888 -0.31883886
0.16028541 0.48459217 -0.31070626
0.16113728 0.45424458 -0.31153247
0.16143632 0.44097447 -0.31182271
0.16353893 0.43606287 -0.31385413
0.16261297 0.43053281 -0.31296036
0.16253304 0.40100494 -0.31052738
0.16552496 0.39483473 -0.31164819
0.16659808 0.38628444 -0.31214902
0.16351074 0.37471873 -0.31155559
0.1637826 0.36555254 -0.31173414
0.16556579 0.35534993 -0.31338784
0.16606563 0.34523359 -0.31393412
0.1649878 0.33532763 -0.31289762
0.16735387 0.32562348 -0.31517619
0.16826594 0.3168132 -0.31596321
0.16733021 0.25239214 -0.31571636
0.1648761 0.24504647 -0.31162143
0.16409582 0.23772472 -0.31044081
0.1649282 0.22232346 -0.31088436
0.16499132 0.2160895 -0.31086999
0.16439652 0.20558222 -0.31057256
0.16523951 0.19338574 -0.31113017
0.16844553 0.18558954 -0.3138701
0.16778219 0.17512769 -0.31314135
0.16663122 0.16573182 -0.3128081
0.1650092 0.15601936 -0.31194702
0.16741788 0.14468057 -0.31302118
0.16709435 0.13616319 -0.3134757
0.16887498 0.12565953 -0.31440943
0.16715354 0.1168787 -0.31070852
0.16801405 0.10531959 -0.31232607
0.16627115 0.098299503 -0.31061241
0.16836095 0.087847471 -0.3116287
0.16763914 0.075155318 -0.31196213
0.16777343 0.0656977 -0.31205478
0.16927385 0.056684107 -0.31353825
0.16896468 0.042036861 -0.31319806
0.16906673 0.037072867 -0.31329665
0.16458982 0.023953199 -0.31357616
0.1665656 0.01507923 -0.31484357
0.16538268 0.0083121955 -0.31536686
0.17738527 0.46136048 -0.31285855
0.17610079 0.45520237 -0.31164363
0.17865032 0.44742793 -0.31435588
0.17812312 0.43869185 -0.31372991
0.17828268 0.39227477 -0.31074265
0.17889994 0.38965058 -0.31132472
0.17977619 0.34185576 -0.31334636
0.17907417 0.33591777 -0.31216609
0.17742157 0.32995963 -0.31112486
0.1702863 0.31362957 -0.3174049
0.1711877 0.3069523 -0.31876013
0.17241907 0.29628929 -0.31930876
0.1734193 0.28845829 -0.31982347
0.17153418 0.26143897 -0.31920722
0.17073953 0.25609198 -0.31886381
0.17016929 0.25025243 -0.31789473
0.17031789 0.18475376 -0.31487399
0.17023492 0.17484888 -0.31558734
0.17022687 0.14521195 -0.31558293
0.17041731 0.13529263 -0.31576678
0.1736635 0.12193495 -0.31947944
0.17471057 0.11501691 -0.31988767
0.17112517 0.10729083 -0.31728217
0.17237711 0.093504667 -0.31854516
0.17174184 0.085350454 -0.31853232
0.17108804 0.078726947 -0.31811905
0.17130435 0.052965283 -0.31514102
0.17247349 0.046705335 -0.31655806
0.17223799 0.032670498 -0.31718597
0.17162764 0.02764973 -0.31575009
0.17114311 0.0083298087 -0.31359455
0.18347698 0.44494784 -0.31815925
0.1803813 0.44025967 -0.31509948
0.18591535 0.34610307 -0.31806117
0.18038183 0.34049806 -0.31213138
0.19493264 0.38603526 -0.3101624
0.19822186 0.37366137 -0.31216291
0.19743937 0.36802825 -0.31170878
0.20038879 0.37003386 -0.31278142
0.2156235 0.67353618 -0.31331918
0.21457404 0.66843277 -0.31259379
0.21169186 0.63597965 -0.31098869
0.2239998 0.68123817 -0.3196376
0.23537803 0.032377958 -0.31943029
0.11614376 0.021318763 -0.30298787
0.11614347 0.019198358 -0.30298793
0.13581747 0.70624971 -0.3046563
0.1394574 0.69112039 -0.30611631
0.13543135 0.68829036 -0.30627748
0.14509106 0.70446163 -0.30424508
0.14424264 0.6945926 -0.3040902
0.14531618 0.68751335 -0.30442578
0.1475637 0.67668283 -0.30398753
0.1469022 0.66578573 -0.30162555
0.14590043 0.65531045 -0.30083877
0.14727151 0.64543259 -0.30175814
0.14889526 0.63581431 -0.30280116
0.14915168 0.62594211 -0.3042936
0.14912242 0.62006199 -0.3045558
0.14917582 0.59427905 -0.30257553
0.1494652 0.58929861 -0.30314699
0.14948845 0.57184374 -0.30026859
0.14937413 0.57004946 -0.30015835
0.1477133 0.40630567 -0.30425557
0.14780641 0.0055680573 -0.30334607
0.15144974 0.70564026 -0.30429271
0.15002817 0.70027554 -0.30077532
0.1512059 0.68505049 -0.30932963
0.15086228 0.67697835 -0.30896708
0.15005744 0.63633966 -0.30150816
0.15089816 0.62609267 -0.30380544
0.15176862 0.61597288 -0.30525976
0.15101051 0.60573727 -0.30495816
0.15203375 0.59747088 -0.307181
0.15083486 0.58503765 -0.30377734
0.15148437 0.57557952 -0.30452412
0.15145653 0.56547403 -0.30449829
0.15194649 0.55511302 -0.30497429
0.1531477 0.54452479 -0.30392581
0.15492761 0.53634489 -0.30499265
0.15454155 0.52582461 -0.30357981
0.15314567 0.51559305 -0.3026422
0.15486479 0.50493741 -0.30345935
0.15635622 0.49545321 -0.30451676
0.15586364 0.48539132 -0.30343434
0.15667659 0.4753558 -0.30507159
0.15622276 0.46556252 -0.30495822
0.15818095 0.45635211 -0.30495745
0.15923423 0.44518864 -0.30577558
0.15904623 0.43639651 -0.30403534
0.15776736 0.42520833 -0.30494571
0.15500134 0.4162975 -0.30149755
0.15653282 0.40647236 -0.30466905
0.15980989 0.34157419 -0.30498224
0.15980971 0.33936143 -0.30498227
0.15967786 0.30702224 -0.30135384
0.15984392 0.18289363 -0.3009429
0.15486944 0.0089305639 -0.30511934
0.16386533 0.51804763 -0.30005661
0.16016304 0.48601893 -0.30941156
0.16012186 0.47787592 -0.30937278
0.16879797 0.46228647 -0.30502918
0.16549236 0.45369571 -0.30385891
0.16129845 0.44677714 -0.30510163
0.16159809 0.4350886 -0.30636483
0.15999788 0.43015778 -0.30573809
0.16174394 0.41107962 -0.30155918
0.16287816 0.40465081 -0.30361012
0.16551113 0.39651176 -0.30867121
0.16560549 0.38308322 -0.30888754
0.16403449 0.37558934 -0.30872521
0.16126287 0.36516339 -0.30578592
0.16365975 0.355762 -0.30804572
0.1619482 0.34536847 -0.30480927
0.16175604 0.33553401 -0.30426997
0.162067 0.32551208 -0.30444926
0.16355926 0.31593919 -0.30473936
0.16308045 0.30497679 -0.30554748
0.16316581 0.29637298 -0.30401269
0.16284418 0.28521559 -0.30486974
0.16205013 0.27525163 -0.30486813
0.1616444 0.26611426 -0.30397448
0.16323256 0.25530139 -0.30497974
0.16458309 0.24638702 -0.30430093
0.16320252 0.23523413 -0.30650628
0.1629495 0.22567192 -0.30517885
0.16357642 0.21609508 -0.3044143
0.16414052 0.20504333 -0.30514994
0.16391969 0.1958836 -0.30411246
0.16379881 0.18658966 -0.30436176
0.16391659 0.17531039 -0.30297413
0.16476554 0.16551501 -0.30399582
0.1635561 0.1557292 -0.3035394
0.16546088 0.14522581 -0.30388287
0.16592872 0.13566181 -0.30395612
0.16521323 0.12569641 -0.30348256
0.16585469 0.1154595 -0.30356413
0.16732436 0.10553807 -0.30428836
0.16665345 0.095811993 -0.30444914
0.16676831 0.085293263 -0.30473027
0.1665439 0.075931609 -0.30349591
0.16695464 0.065761596 -0.30350885
0.16659647 0.055490643 -0.30396643
0.16648185 0.045375615 -0.30366614
0.16743797 0.035399735 -0.3041203
0.16728306 0.025995076 -0.30496034
0.16684169 0.014754832 -0.30455267
0.16338295 0.0075303316 -0.30477279
0.17023629 0.4623332 -0.3055037
0.17036879 0.45597264 -0.30386612
0.17220074 0.44572869 -0.30434719
0.17331177 0.43593371 -0.30546358
0.1708712 0.40238369 -0.30316925
0.17535806 0.39737087 -0.30744591
0.1707201 0.3524043 -0.30102018
0.17155516 0.34527397 -0.30157635
0.17251527 0.33529183 -0.3024416
0.1745289 0.32566693 -0.3057847
0.17213148 0.31573328 -0.30201381
0.1717419 0.30540726 -0.30185875
0.17225969 0.29919425 -0.30213591
0.17290199 0.20446943 -0.30073506
0.17356688 0.19987032 -0.30102259
0.17141742 0.18332911 -0.30047855
0.17205125 0.17494269 -0.30098972
0.17250162 0.1658159 -0.30124101
0.17027807 0.15462354 -0.30029231
0.17154688 0.14437997 -0.30070144
0.17183536 0.13613757 -0.30097318
0.17215741 0.12514092 -0.30120105
0.17137355 0.11746624 -0.30073795
0.17035639 0.10427693 -0.30037141
0.17162609 0.093435138 -0.30132887
0.17119932 0.086652428 -0.30116433
0.17062241 0.063461035 -0.3006255
0.17184973 0.05572179 -0.301709
0.17150056 0.047134101 -0.30159801
0.17089432 0.036301374 -0.30088371
0.17148751 0.023225337 -0.30162227
0.17048764 0.013615489 -0.30461591
0.18173409 0.41586593 -0.30035779
0.18540096 0.40460339 -0.30113652
0.18531531 0.39605039 -0.30199254
0.18119383 0.38835537 -0.30059731
0.18762118 0.35602447 -0.30224761
0.18420392 0.34943262 -0.30028552
0.19249094 0.39297208 -0.30672073
0.19429517 0.38590109 -0.30834299
0.1950559 0.37847733 -0.30884141
0.1939131 0.36408046 -0.30779216
0.20365548 0.34315136 -0.30019102
0.20790368 0.098757833 -0.30044252
0.20967126 0.061898321 -0.30082867
0.20957923 0.055989325 -0.30131671
0.21200871 0.66514039 -0.30946136
0.21048033 0.056665987 -0.30062026
0.11923802 0.021016538 -0.29584408
0.11923784 0.019321054 -0.29584402
0.12735993 0.70449334 -0.29530251
0.13902658 0.71209717 -0.29472899
0.13545036 0.70630622 -0.29516941
0.14241683 0.7121402 -0.29457164
0.14532405 0.7069906 -0.29465806
0.14539939 0.69435853 -0.29556316
0.14600641 0.68543708 -0.29436165
0.14718497 0.67518663 -0.29725647
0.14793283 0.6652413 -0.29544413
0.14796257 0.65578127 -0.2952466
0.14800328 0.64633656 -0.29556644
0.14749998 0.63553518 -0.29369777
0.14824933 0.62639803 -0.29441524
0.14828658 0.61555493 -0.29461426
0.14816731 0.6053012 -0.29536551
0.14769149 0.59511983 -0.29585868
0.14730114 0.58476502 -0.29432952
0.14834344 0.57648224 -0.29620385
0.14920372 0.56580734 -0.29739559
0.1484977 0.55629086 -0.29753935
0.1493119 0.54984355 -0.29952103
0.14279008 0.41160908 -0.29554307
0.14361537 0.40803701 -0.29620826
0.14434832 0.011752486 -0.29651952
0.15124756 0.70498204 -0.29654342
0.15082103 0.68179297 -0.29298127
0.15104324 0.67592895 -0.29414177
0.15010923 0.66829342 -0.29309452
0.15003675 0.65453196 -0.29259765
0.15127581 0.6449331 -0.29247564
0.15240008 0.63622057 -0.29091698
0.15205216 0.62420416 -0.29242665
0.1523664 0.61553109 -0.29362434
0.15367478 0.6057179 -0.29482436
0.15424633 0.59570742 -0.29538018
0.1551764 0.58581686 -0.29521531
0.15336174 0.57514751 -0.29524237
0.1535219 0.56537563 -0.29487091
0.15380973 0.55510688 -0.29534394
0.15524274 0.5461635 -0.29619896
0.15643448 0.53580862 -0.29723847
0.15510333 0.52565068 -0.2971918
0.15372133 0.51534206 -0.29632437
0.15512729 0.5056932 -0.29693377
0.15552735 0.4950648 -0.29658306
0.15578443 0.48542207 -0.29603696
0.15578914 0.47539034 -0.29530394
0.15494597 0.46635303 -0.29546803
0.15514559 0.45759812 -0.29858893
0.15813935 0.43081009 -0.29928875
0.1558069 0.42570418 -0.29516488
0.15627235 0.41524982 -0.29700857
0.15590465 0.4086749 -0.29533637
0.15860063 0.37145263 -0.29046357
0.15920693 0.36888462 -0.2910338
0.15932566 0.23462164 -0.29837364
0.1586228 0.011852354 -0.2928924
0.15487486 0.0064252615 -0.29589939
0.16606957 0.61400783 -0.29099882
0.16650432 0.60897315 -0.29127502
0.160052 0.59504652 -0.29760116
0.16545981 0.5842666 -0.29069167
0.16486979 0.57863432 -0.29052883
0.16012561 0.54573858 -0.29825836
0.16272521 0.5336194 -0.29487443
0.16342717 0.52580023 -0.29663926
0.16361582 0.51530957 -0.29849315
0.16212678 0.50559151 -0.2972846
0.16073006 0.49563748 -0.29653847
0.16828787 0.48752731 -0.29125059
0.16162056 0.47179401 -0.29406506
0.16375643 0.46512792 -0.29714859
0.16693318 0.45818412 -0.29916233
0.16314685 0.43263915 -0.29899698
0.16264218 0.42887199 -0.29657948
0.16346639 0.40705937 -0.29677618
0.16322178 0.36408043 -0.2930041
0.16770846 0.35689253 -0.2978586
0.16970253 0.34835672 -0.29040623
0.1652835 0.31425586 -0.2987504
0.16241413 0.30626762 -0.29784679
0.16457218 0.29372653 -0.29853004
0.1645447 0.28549534 -0.29877824
0.16445959 0.27581483 -0.29870892
0.16443843 0.26519176 -0.29833263
0.16393 0.25590444 -0.29594809
0.1645993 0.24458589 -0.29608822
0.16395229 0.23597702 -0.29595035
0.16518533 0.22576898 -0.29754615
0.1654712 0.21543805 -0.29774481
0.16408288 0.20626046 -0.29808867
0.16646129 0.19542076 -0.29767913
0.16387933 0.18549831 -0.29800814
0.16442221 0.17606269 -0.29756987
0.16580486 0.16556598 -0.29842472
0.1646021 0.15528606 -0.29775971
0.16588771 0.14698613 -0.29855514
0.16738176 0.13285343 -0.29916912
0.16701639 0.12550142 -0.29778922
0.16825533 0.11386469 -0.29847479
0.16813219 0.10531366 -0.2971788
0.16736311 0.095958471 -0.29475051
0.16600126 0.085596353 -0.29298258
0.16660517 0.075605839 -0.29473817
0.16633624 0.066315174 -0.29275745
0.16875917 0.053984851 -0.29532677
0.16918606 0.044403404 -0.29680049
0.16922957 0.035577357 -0.29674679
0.16550988 0.02450937 -0.29586798
0.16542608 0.015584618 -0.29576689
0.16642082 0.009010762 -0.29272997
0.17118865 0.52374381 -0.29176283
0.17115641 0.51560771 -0.29173392
0.17302215 0.50589031 -0.29410541
0.17167401 0.49541804 -0.29337955
0.17135769 0.47272182 -0.29056865
0.17248529 0.46331412 -0.29105711
0.17450833 0.45573384 -0.29250932
0.17508155 0.44536826 -0.29275548
0.17687768 0.43517038 -0.29315895
0.17867196 0.42728651 -0.29476601
0.17860246 0.38315192 -0.29746711
0.17716527 0.37580624 -0.29613996
0.17346841 0.36824068 -0.29272425
0.17106473 0.351816 -0.29983664
0.17475516 0.34363928 -0.29255491
0.1755473 0.33637857 -0.2911489
0.17618525 0.32418838 -0.2917369
0.17740339 0.31574506 -0.29285771
0.17779171 0.30623832 -0.29511267
0.17639726 0.29565197 -0.29356545
0.17725688 0.28566685 -0.29364246
0.17676586 0.27549663 -0.2934432
0.17417747 0.26599631 -0.29113531
0.17682004 0.25448391 -0.29088587
0.17843455 0.24542539 -0.29151177
0.17866081 0.23702741 -0.29202956
0.17647058 0.22896053 -0.29229367
0.17493528 0.21422032 -0.29304999
0.17546791 0.20608363 -0.29387748
0.17485791 0.19566655 -0.29382867
0.17604262 0.18620214 -0.29605198
0.17798072 0.17735866 -0.29456615
0.17824084 0.16358609 -0.29480487
0.17495209 0.15470885 -0.29621542
0.17722219 0.14654988 -0.29453361
0.17713934 0.1347575 -0.29372317
0.1743511 0.12581721 -0.29316378
0.17574757 0.11597964 -0.29255337
0.17448008 0.10461167 -0.29286569
0.1760112 0.096894801 -0.29220015
0.17606884 0.08416456 -0.29223216
0.17537898 0.075740427 -0.29247314
0.17506438 0.064437836 -0.29435951
0.17145109 0.058218688 -0.29761404
0.17095828 0.045291454 -0.29860133
0.17063612 0.035694867 -0.29896879
0.17034864 0.026480913 -0.29832488
0.18612146 0.67273998 -0.2908386
0.18486649 0.66680229 -0.2902866
0.18967044 0.65143919 -0.29111999
0.18932408 0.64509898 -0.29080814
0.18845153 0.6379472 -0.29021692
0.18955451 0.52173585 -0.29161578
0.18955433 0.52037954 -0.29161578
0.18239444 0.43614221 -0.29040295
0.18093234 0.42293292 -0.29596651
0.18213415 0.41538873 -0.29746777
0.1846559 0.4071517 -0.29833579
0.18343526 0.39855179 -0.29957229
0.18177086 0.38727894 -0.2980414
0.18380499 0.34773844 -0.29850399
0.18472487 0.33748731 -0.29019344
0.18045855 0.30686837 -0.29488623
0.18056858 0.2467362 -0.29284751
0.18054634 0.23368929 -0.29296362
0.18033284 0.23060352 -0.29263341
0.18060195 0.18492472 -0.29440647
0.18099099 0.17241958 -0.29460889
0.18106216 0.1665955 -0.29481035
0.18104291 0.15736665 -0.29470402
0.18037516 0.14175093 -0.29326659
0.18047827 0.1381146 -0.29375154
0.18212932 0.11569293 -0.29019612
0.18100846 0.10196251 -0.29034412
0.18182015 0.095122039 -0.29056549
0.18277192 0.085359126 -0.29107612
0.18091947 0.079571247 -0.29026544
0.18158978 0.063183516 -0.29071128
0.18140638 0.060146004 -0.29071134
0.18279415 0.032893121 -0.29080993
0.19945574 0.6830557 -0.29935068
0.19790465 0.65638041 -0.29736298
0.19007373 0.65008307 -0.29031092
0.19228584 0.55199909 -0.29349011
0.19526476 0.54575181 -0.29617822
0.19330442 0.53555322 -0.29441082
0.19344658 0.52684641 -0.2944088
0.19448668 0.47659749 -0.29312503
0.1913265 0.46296036 -0.2908718
0.1914323 0.45590189 -0.29093993
0.19277459 0.44499287 -0.29171944
0.19614691 0.43601269 -0.29462212
0.19714868 0.42572042 -0.29552376
0.19421929 0.41690198 -0.29305869
0.19781148 0.36505276 -0.29376233
0.19750106 0.35544682 -0.29348528
0.19894582 0.3482697 -0.29478049
0.198677 0.33501181 -0.29454094
0.1972208 0.32535982 -0.29323721
0.19640893 0.31530613 -0.29251099
0.19402194 0.30587542 -0.29086941
0.19202465 0.29609507 -0.29061753
0.19202232 0.28769907 -0.29073387
0.1984067 0.2123258 -0.29195112
0.19710308 0.20645957 -0.291596
0.19896704 0.19305986 -0.29363406
0.19579178 0.18671195 -0.29126483
0.19608122 0.17597817 -0.29143107
0.1968416 0.16570519 -0.2917695
0.19616717 0.15618201 -0.29182673
0.19781929 0.14783056 -0.29279304
0.19903725 0.08143577 -0.29134846
0.19903702 0.079155922 -0.29134852
0.19969761 0.045201391 -0.29194081
0.20692456 0.70355129 -0.29119015
0.20006853 0.68305564 -0.29812163
0.20197737 0.34348714 -0.29742706
0.20189154 0.34024751 -0.2974205
0.20099771 0.19737965 -0.29544985
0.20073736 0.15169913 -0.29462999
0.20286775 0.14944486 -0.29712749
0.2028501 0.11211339 -0.29355961
0.20526594 0.10537592 -0.2965591
0.20465404 0.095417976 -0.29631913
0.20368505 0.085677981 -0.29549068
0.20153767 0.073892623 -0.29357785
0.20451277 0.067083776 -0.29623038
0.20588893 0.051554918 -0.29706049
0.20241815 0.048610747 -0.29436541
0.20828128 0.040089935 -0.29601848
0.21270895 0.70553535 -0.29272121
0.13861978 0.71186388 -0.28439683
0.13802361 0.70777488 -0.28369755
0.13806504 0.69130152 -0.28069955
0.13806486 0.68915892 -0.28069955
0.1449495 0.71477258 -0.28327012
0.14471722 0.70586777 -0.28562939
0.14334029 0.69523883 -0.28428936
0.1457966 0.68618846 -0.28538674
0.14546269 0.67604995 -0.28331339
0.1461466 0.66542554 -0.28450578
0.14796495 0.65681708 -0.28636444
0.14888853 0.64813268 -0.28473455
0.14804828 0.6340239 -0.28857177
0.14910823 0.62814915 -0.2895152
0.14651477 0.6017977 -0.28134829
0.14551324 0.59608054 -0.28133386
0.14654857 0.58534837 -0.28191322
0.14571983 0.57526952 -0.28173912
0.14825642 0.56833935 -0.28387886
0.14852315 0.55406374 -0.28138387
0.14876008 0.54615831 -0.28159219
0.14746279 0.5348382 -0.28063351
0.1471923 0.52450567 -0.28057468
0.14897829 0.51534092 -0.28143507
0.14865893 0.5067122 -0.28110325
0.14956087 0.49595243 -0.28321373
0.1491043 0.48551255 -0.28038573
0.14928305 0.47603035 -0.28055459
0.14958394 0.45964465 -0.28083867
0.14987385 0.42156392 -0.2879712
0.14987361 0.41938931 -0.28797126
0.14919722 0.4015179 -0.28048229
0.14978617 0.39857668 -0.28103524
0.14711219 0.0061079562 -0.28129143
0.15017617 0.70394254 -0.28331494
0.1500181 0.68193603 -0.28693306
0.15598094 0.67252123 -0.28059959
0.15716809 0.6680218 -0.28066915
0.15655375 0.65409255 -0.28269184
0.15654534 0.64734209 -0.28498065
0.15274298 0.6346885 -0.28871626
0.15315008 0.62995231 -0.28990287
0.15957117 0.6163317 -0.28214329
0.1576423 0.60213947 -0.28125918
0.15962571 0.59879053 -0.2818141
0.15287924 0.5642575 -0.28583801
0.15434986 0.55558878 -0.28613681
0.15531617 0.54657304 -0.28219527
0.15509683 0.53619188 -0.28098816
0.15422446 0.52439868 -0.28044957
0.15108287 0.51862383 -0.28024197
0.15099746 0.50225437 -0.28284591
0.15052396 0.49442548 -0.28311181
0.15253741 0.48556843 -0.28565627
0.15411508 0.47473899 -0.28501821
0.15386713 0.46605888 -0.28198606
0.15684408 0.45754737 -0.28118736
0.15713215 0.44557154 -0.28047138
0.15423524 0.42232013 -0.28864825
0.1534481 0.41559088 -0.28848791
0.15429628 0.40942898 -0.28942531
0.15136224 0.3942976 -0.28149658
0.15371728 0.38568497 -0.28431118
0.15485173 0.37535691 -0.28481299
0.15347546 0.3662369 -0.28207433
0.15615577 0.35526541 -0.28201485
0.15739894 0.34580058 -0.28318429
0.15535188 0.3355965 -0.28189218
0.15505099 0.32572311 -0.28154129
0.15617144 0.3150447 -0.28209263
0.1560728 0.30610102 -0.28203696
0.15805173 0.29553565 -0.28351182
0.15925783 0.28587323 -0.28570175
0.15915 0.27610448 -0.28479105
0.15865374 0.26571429 -0.28362197
0.15859407 0.25565064 -0.28356779
0.15912884 0.24555165 -0.2840662
0.15845227 0.23520128 -0.28308487
0.15830225 0.22567756 -0.28221172
0.158732 0.21537316 -0.28370041
0.15912771 0.20537759 -0.28382146
0.15779901 0.19577567 -0.28306913
0.15855938 0.1850592 -0.28424847
0.15925574 0.17636056 -0.28505319
0.15967792 0.16603078 -0.28613305
0.15997201 0.15672421 -0.28716081
0.15953708 0.1448378 -0.28540909
0.15964681 0.13543691 -0.28413153
0.15963972 0.13042666 -0.28225994
0.15991557 0.11447765 -0.28552473
0.1600644 0.024910867 -0.28496093
0.15571654 0.011231124 -0.28875047
0.15338528 0.0088935792 -0.28517789
0.1599707 0.6506725 -0.2825101
0.16040283 0.64360738 -0.28229249
0.16168541 0.63586032 -0.28316724
0.16290814 0.62611783 -0.28377187
0.16257483 0.61567748 -0.28296953
0.16254008 0.60576451 -0.28367537
0.16305059 0.5952825 -0.28403974
0.16499794 0.58616316 -0.28408438
0.16378498 0.57568097 -0.28429437
0.16352403 0.56535792 -0.28408545
0.1644516 0.55570579 -0.28418308
0.16494811 0.54545701 -0.28315222
0.16623676 0.53531486 -0.2842409
0.16765034 0.52614069 -0.28395253
0.16845191 0.51548964 -0.28345364
0.1691646 0.5054056 -0.28459805
0.16833049 0.49589568 -0.2841596
0.16764194 0.48523015 -0.2845363
0.1678676 0.47570354 -0.28477424
0.16722393 0.46601939 -0.28346401
0.16010344 0.46009958 -0.28150797
0.16681159 0.36316338 -0.28841221
0.16790694 0.35525712 -0.28758603
0.16611493 0.34531549 -0.28611034
0.1632517 0.3354983 -0.28328627
0.16113925 0.32616106 -0.28133512
0.16125071 0.31389156 -0.28143948
0.16098773 0.30950236 -0.28119689
0.16117013 0.29401016 -0.28194052
0.16124648 0.28478509 -0.28405547
0.16120297 0.27557397 -0.28544921
0.16088712 0.26587433 -0.28536189
0.16135973 0.2560046 -0.28348172
0.16226059 0.24564689 -0.28339571
0.16460514 0.23574898 -0.28376836
0.16367227 0.22563496 -0.2819612
0.16342807 0.21572365 -0.28295869
0.16246855 0.20644221 -0.28203148
0.16210175 0.19553019 -0.28223783
0.16248423 0.18586892 -0.28286517
0.16205376 0.17538376 -0.2826876
0.16162926 0.16550311 -0.28288227
0.16227192 0.15526186 -0.28434718
0.16163546 0.14601935 -0.28263223
0.16211969 0.13544281 -0.28385115
0.16297966 0.12541151 -0.28510308
0.1621235 0.11623153 -0.28387195
0.16279274 0.1058428 -0.28492755
0.16363871 0.095263958 -0.28539693
0.1630047 0.085785866 -0.2845239
0.16349792 0.075845659 -0.2850036
0.16569626 0.065192163 -0.28587472
0.16618192 0.055625051 -0.28625739
0.1659289 0.045698673 -0.28578943
0.16549146 0.036156476 -0.28638893
0.16453302 0.026121527 -0.28459239
0.16301566 0.015138566 -0.28490013
0.16441894 0.0090833008 -0.28622967
0.17721355 0.67708158 -0.28182536
0.17008191 0.66082168 -0.28032398
0.17478615 0.65223265 -0.28286892
0.17468488 0.64443958 -0.28067011
0.17563057 0.63534987 -0.28123909
0.17406756 0.62538654 -0.28208715
0.174043 0.61643624 -0.28291661
0.17182511 0.60588944 -0.28147972
0.17221552 0.59577739 -0.28161341
0.17769939 0.58547151 -0.28147745
0.17408246 0.57594877 -0.28212702
0.17372817 0.5662623 -0.28109086
0.17386842 0.55527604 -0.28087324
0.17642379 0.54612499 -0.28274447
0.17550278 0.53603369 -0.28212249
0.17326641 0.52469146 -0.28204381
0.17350167 0.5161916 -0.28133619
0.17246503 0.50497258 -0.28261709
0.17469639 0.4948563 -0.28310496
0.17265809 0.48675537 -0.28100437
0.17256397 0.47529337 -0.28414953
0.17271388 0.46634048 -0.28710985
0.17606628 0.45518404 -0.28455484
0.17640847 0.44635546 -0.28688776
0.17521101 0.43953502 -0.28908384
0.17849338 0.4142493 -0.28516662
0.17866111 0.40793258 -0.28518379
0.17832285 0.37214893 -0.2830472
0.17737663 0.36574745 -0.28320622
0.17786109 0.35973418 -0.28280884
0.17506498 0.34292087 -0.28880829
0.17591006 0.33435428 -0.28801656
0.17543709 0.32561982 -0.2851879
0.17521399 0.31537455 -0.28388125
0.17587358 0.30581844 -0.28448331
0.17603338 0.29528823 -0.28538048
0.17641199 0.28542906 -0.28511202
0.17516762 0.27556396 -0.28500152
0.17527503 0.26581106 -0.28417337
0.17580795 0.25583446 -0.28669292
0.17645359 0.24585497 -0.28542799
0.17778963 0.23546547 -0.2843622
0.17637652 0.22547214 -0.28437668
0.17724311 0.21598901 -0.2842927
0.17752415 0.20580587 -0.28497601
0.17691284 0.195382 -0.28428012
0.17747337 0.18550588 -0.28479218
0.17830092 0.17557268 -0.28554446
0.17889369 0.16609611 -0.28735435
0.17846256 0.15696228 -0.2860561
0.17814803 0.14483342 -0.28865433
0.17802179 0.13613351 -0.28854811
0.17738742 0.12561348 -0.28785002
0.17777902 0.115889 -0.28858948
0.17703414 0.10613978 -0.28912663
0.17449033 0.095277369 -0.28872693
0.17423171 0.086030781 -0.28796875
0.17542297 0.075443923 -0.28771365
0.17446399 0.066520214 -0.2877562
0.17613709 0.055102915 -0.28677201
0.17709011 0.045599371 -0.28562444
0.17604792 0.035336167 -0.28506231
0.17611897 0.028190196 -0.28347999
0.18705016 0.6935702 -0.28350574
0.18290991 0.6763947 -0.28567469
0.18306732 0.66568804 -0.28745276
0.18238109 0.6566987 -0.28672397
0.18655574 0.64439285 -0.28714317
0.18892139 0.63824809 -0.28927439
0.18322915 0.61570346 -0.28880733
0.18285894 0.58455658 -0.28498203
0.18556517 0.55550432 -0.28742647
0.18488777 0.51482308 -0.2879352
0.18441784 0.50583535 -0.28756213
0.18435109 0.49594226 -0.28750294
0.18262476 0.4856028 -0.28594404
0.18236965 0.47593814 -0.28563154
0.18329483 0.46603215 -0.28522819
0.18236399 0.45552757 -0.28571153
0.18113792 0.44506511 -0.28489512
0.18293142 0.43559113 -0.2879315
0.18314028 0.42532015 -0.28811765
0.1825912 0.41599479 -0.28576875
0.18505019 0.40514004 -0.28717434
0.18378681 0.39568532 -0.28641659
0.18460745 0.38593179 -0.28711855
0.18290025 0.37662446 -0.2852397
0.1805594 0.36518741 -0.28146082
0.18234414 0.35521284 -0.28496373
0.18233758 0.34532613 -0.28511715
0.18375069 0.33574104 -0.28615725
0.18334424 0.32608464 -0.28459799
0.18349534 0.31579527 -0.28442186
0.18294555 0.30618408 -0.2840026
0.18199962 0.29618251 -0.2841652
0.18315053 0.28332901 -0.28372216
0.18478835 0.27544397 -0.28500301
0.18475258 0.26535767 -0.28424621
0.18460506 0.25606832 -0.28460717
0.18562734 0.24509743 -0.28468221
0.18608886 0.23590297 -0.28443629
0.18524623 0.22564736 -0.28368098
0.18566638 0.21571 -0.28413379
0.1861406 0.20608906 -0.28539622
0.18830222 0.19560333 -0.28759485
0.18605655 0.18554328 -0.28557688
0.18625981 0.17562509 -0.28576082
0.18347645 0.16517456 -0.28541964
0.1843763 0.15447211 -0.28593785
0.18345553 0.14551684 -0.28635848
0.18461359 0.13596018 -0.28629714
0.18375981 0.12561335 -0.28516579
0.18363386 0.11528267 -0.28532225
0.18397486 0.10551524 -0.28618574
0.1848942 0.095545918 -0.28634959
0.18458796 0.085466832 -0.28575915
0.18353975 0.075882316 -0.28497577
0.18418837 0.065956354 -0.2875843
0.18396586 0.055740863 -0.28575122
0.1842767 0.045492411 -0.28272986
0.18321919 0.036575496 -0.28326976
0.18438166 0.024723977 -0.2812258
0.18783867 0.018996567 -0.28168207
0.19346172 0.69786453 -0.28280908
0.19047725 0.65143907 -0.28950185
0.19013059 0.64509892 -0.28919077
0.19004476 0.6399374 -0.28911418
0.19141239 0.46445528 -0.2895804
0.19170904 0.45478001 -0.28965259
0.19110733 0.44902268 -0.28950357
0.19205242 0.41296092 -0.28976971
0.19286466 0.30249715 -0.28933674
0.19222897 0.29454178 -0.28922385
0.19160259 0.28629512 -0.2890535
0.1930548 0.22463264 -0.28717119
0.19384164 0.21640973 -0.2878747
0.19508481 0.20529777 -0.28898454
0.19512808 0.18547034 -0.28947812
0.19587588 0.1766883 -0.28969514
0.19580579 0.16079824 -0.28963423
0.1959272 0.15714251 -0.28974307
0.19147527 0.14452496 -0.28659409
0.19041967 0.13283828 -0.28482819
0.19289041 0.12771678 -0.28820604
0.191091 0.10243559 -0.28737915
0.19124728 0.064335734 -0.28757882
0.1914252 0.059213161 -0.28807282
0.19400275 0.043633223 -0.2847631
0.19367093 0.023375571 -0.28127372
0.19269753 0.019533843 -0.2806139
0.12334889 0.017888397 -0.27285343
0.13805842 0.71163535 -0.27955985
0.1384573 0.70569766 -0.27627975
0.13808554 0.6915006 -0.27508628
0.13808531 0.68936372 -0.27508628
0.13940644 0.60816616 -0.27520686
0.143758 0.71336067 -0.27540803
0.14445174 0.70538312 -0.27558249
0.14282715 0.69500476 -0.27600312
0.14510345 0.68605435 -0.27641928
0.14603937 0.67554182 -0.27732486
0.14535111 0.665694 -0.27767724
0.14639193 0.65564775 -0.27837789
0.14570308 0.64557648 -0.27865094
0.14546776 0.63559783 -0.27839863
0.14532924 0.62522751 -0.27700722
0.14511418 0.61584222 -0.27737689
0.14440989 0.60540175 -0.27663392
0.14710283 0.59512222 -0.27803028
0.1473003 0.58599335 -0.27785736
0.14657503 0.57511348 -0.27736056
0.14705473 0.5652774 -0.27779067
0.1479001 0.55775332 -0.27830124
0.14869106 0.54243273 -0.27885503
0.14858359 0.5364877 -0.27883554
0.1484279 0.52582812 -0.27860981
0.14970368 0.5124262 -0.27980721
0.1486218 0.5063476 -0.27765912
0.14896959 0.49497157 -0.27899528
0.14941418 0.48573047 -0.27917999
0.14897424 0.47734225 -0.27900821
0.14799017 0.45381689 -0.27689874
0.1481567 0.44623548 -0.2771166
0.14851391 0.43524095 -0.27756566
0.14794123 0.42643002 -0.27738488
0.14770627 0.41547635 -0.27794683
0.14831328 0.40535256 -0.27733302
0.14990067 0.40058023 -0.27773094
0.14866698 0.010939002 -0.27435756
0.14469671 0.0084131956 -0.27338761
0.15591252 0.69252765 -0.27209181
0.15441662 0.68624258 -0.27560925
0.15604973 0.67566687 -0.27645659
0.15463519 0.6652329 -0.27835232
0.15580338 0.65597963 -0.27818054
0.15189034 0.64612865 -0.27815473
0.15095538 0.63580596 -0.27846283
0.15041918 0.62454534 -0.27796352
0.15083981 0.61828142 -0.27858382
0.15057898 0.60351723 -0.27891034
0.15011072 0.58244574 -0.27790713
0.15112174 0.55373341 -0.27916443
0.15109891 0.54604596 -0.27917475
0.15341717 0.53391004 -0.27905762
0.15362036 0.5255748 -0.27898461
0.15218788 0.51534826 -0.27873486
0.1518172 0.5048399 -0.27764052
0.15150428 0.49582314 -0.27799022
0.15173745 0.485955 -0.27857518
0.15124303 0.47631496 -0.27804548
0.15330672 0.46185675 -0.27919382
0.15372276 0.45609921 -0.27859288
0.15442616 0.44510871 -0.27818602
0.15343487 0.43632177 -0.27732217
0.15314996 0.42500874 -0.27751422
0.15356785 0.41588065 -0.27805763
0.15198731 0.40496248 -0.27619374
