# .PCD v0.7 - Point Cloud Data file format
VERSION 0.7
FIELDS x y z
SIZE 4 4 4
TYPE F F F
COUNT 1 1 1
WIDTH 1454
HEIGHT 1
VIEWPOINT 0 0 0 1 0 0 0
POINTS 1454
DATA ascii
0.46573889 0.57509285 0.16682935
0.46572614 0.56498235 0.1668734
0.46596372 0.5592308 0.16697186
0.46509802 0.50414979 0.16697431
0.46500981 0.49500906 0.16699135
0.46487188 0.48501837 0.16699725
0.46485889 0.47492707 0.16704124
0.46467721 0.46504533 0.16703397
0.46466696 0.45506251 0.16707814
0.46448445 0.44497305 0.16707152
0.4646939 0.4390274 0.16716248
0.46419239 0.3913964 0.16723841
0.46562231 0.38472331 0.16769809
0.46573853 0.37495521 0.16777885
0.46576929 0.36507323 0.167835
0.46567154 0.35498574 0.16785383
0.46557415 0.34489998 0.16787237
0.46560466 0.33501869 0.1679284
0.465253 0.32495582 0.16787118
0.46532297 0.31889743 0.16792083
0.46488261 0.2732887 0.16800541
0.46467662 0.26500878 0.16798335
0.46483397 0.25496018 0.16807789
0.46452284 0.24508685 0.16803187
0.46459496 0.23503216 0.16810125
0.46441662 0.22506751 0.16809517
0.46431959 0.21500441 0.16811377
0.46408176 0.20525476 0.16808891
0.46457946 0.15284079 0.16848683
0.46464765 0.14503787 0.16854405
0.46455073 0.1349815 0.16856259
0.46445322 0.12492684 0.16858149
0.46443915 0.1150066 0.16862422
0.46415555 0.10508725 0.16858637
0.46427035 0.095037043 0.16866863
0.46393263 0.087503791 0.16860336
0.47318101 0.61324656 0.16891932
0.47312129 0.60497344 0.16889572
0.4735173 0.59536797 0.16905975
0.47397041 0.58499372 0.16924453
0.4738009 0.57500046 0.16924119
0.47384953 0.56501442 0.16930312
0.47372079 0.55930495 0.16929168
0.47262633 0.50472766 0.16922307
0.47207928 0.49498415 0.16910583
0.47198081 0.48483744 0.16912442
0.47193825 0.47495228 0.16915882
0.47173333 0.46482345 0.16914523
0.47169089 0.45494172 0.1691798
0.47164845 0.44506055 0.16921389
0.47120023 0.43925178 0.16910732
0.47107506 0.39146453 0.16929674
0.47135997 0.38597834 0.16940802
0.47192991 0.37500197 0.16963059
0.47183144 0.364869 0.16964924
0.47173309 0.35473776 0.1696679
0.47163999 0.34514141 0.1696856
0.47154164 0.33501369 0.16970426
0.4714433 0.32488769 0.16972291
0.47138631 0.31902602 0.1697337
0.47094154 0.2732195 0.16981804
0.47086418 0.26523373 0.16983277
0.47076571 0.25511998 0.1698513
0.47066772 0.24500796 0.16986996
0.47056937 0.23489778 0.16988862
0.47047126 0.22478932 0.16990715
0.4703784 0.21521451 0.16992486
0.4702853 0.2056413 0.16994256
0.49401963 0.67212129 0.16508156
0.49414945 0.66630173 0.16503602
0.4938525 0.65683901 0.16931939
0.49502704 0.00037577748 0.16896367
0.49538621 -0.0082842708 0.16495597
0.49530682 -0.014080673 0.16521657
0.50314176 0.66360927 0.16614485
0.50392687 -0.0061923862 0.16541624
0.35909992 0.066027999 0.17027116
0.35894114 0.056173712 0.17025375
0.36716765 0.54095292 0.17022651
0.36802965 0.53719777 0.17054808
0.36778069 0.52487594 0.17064178
0.36801732 0.51715785 0.1707145
0.36771983 0.50598657 0.17068201
0.36728615 0.42496395 0.17085016
0.36670893 0.41329917 0.17088997
0.36697745 0.40578148 0.17083985
0.36671203 0.39327028 0.17093521
0.36653417 0.31254849 0.1712268
0.36589652 0.30350748 0.17114323
0.36581624 0.29485905 0.17112392
0.36573488 0.28356341 0.17110389
0.3660782 0.27837563 0.17121792
0.36492366 0.20158002 0.17119306
0.36501789 0.19634375 0.17125434
0.36504388 0.1850186 0.17137295
0.36499184 0.17619585 0.17145979
0.36511588 0.1671633 0.17151892
0.36749971 0.090031236 0.17116702
0.36493164 0.086718142 0.17176086
0.36471379 0.07430914 0.17173254
0.36479759 0.066708028 0.17190552
0.36494756 0.054955155 0.17193002
0.37475485 0.54071271 0.17250574
0.37493879 0.53694129 0.17261702
0.37512249 0.52457404 0.1727289
0.3752808 0.5169549 0.1728031
0.37510705 0.50576913 0.17270744
0.37529063 0.42493954 0.17324984
0.37474108 0.41326746 0.17328691
0.37506747 0.40569749 0.17321527
0.3748464 0.39336222 0.17336607
0.37209386 0.38987386 0.17159808
0.37505567 0.31256801 0.17376608
0.37482649 0.30330735 0.17381591
0.3747769 0.29505491 0.17365766
0.37487745 0.283822 0.17391062
0.37479359 0.27853966 0.17371839
0.37477261 0.20181133 0.17376751
0.374942 0.19654155 0.1742754
0.37477094 0.18498009 0.17424297
0.37495464 0.17591295 0.17405903
0.37492239 0.166931 0.17443943
0.37593567 0.090081722 0.17239797
0.37477982 0.086615771 0.17473489
0.3754406 0.074646413 0.17441684
0.37526882 0.066797554 0.17503953
0.37564629 0.055414021 0.17440975
0.38447303 0.54084444 0.17540193
0.38531762 0.53646594 0.17441499
0.38533515 0.52474147 0.17579931
0.38530171 0.51659197 0.174519
0.38506538 0.50539821 0.17514426
0.38556683 0.42426011 0.17498589
0.38503575 0.41364643 0.17598236
0.38543141 0.40506506 0.17522693
0.38519686 0.39404035 0.1756652
0.38302058 0.38983157 0.17342246
0.38512391 0.31275108 0.17677009
0.38522446 0.30462506 0.17444319
0.384817 0.29504636 0.17671293
0.38516033 0.28497937 0.17445564
0.38492036 0.27867085 0.17652082
0.3855617 0.20202799 0.17591357
0.38491583 0.19428983 0.17441416
0.3846783 0.18500662 0.17718947
0.38515639 0.17412691 0.1746192
0.38459933 0.1670882 0.17733425
0.3849901 0.090112478 0.1740014
0.38493311 0.086301744 0.1775009
0.38519549 0.075635433 0.17591774
0.38531739 0.066514909 0.17785448
0.38532978 0.056212366 0.17597747
0.39499164 0.5408867 0.17854279
0.3948437 0.53585124 0.17603385
0.39444548 0.52476037 0.17851013
0.39460146 0.51577306 0.17583221
0.39447457 0.50475681 0.17715657
0.3941732 0.42368627 0.17691272
0.39350075 0.41468111 0.17721844
0.3940869 0.40435734 0.17703187
0.3935709 0.3948358 0.17738205
0.39471924 0.38982153 0.17564046
0.39347291 0.3129029 0.17926091
0.39439434 0.30554214 0.17552906
0.39347142 0.29524606 0.17917132
0.39422309 0.28571564 0.17556292
0.39315504 0.27880353 0.17932308
0.39462024 0.2023719 0.17780477
0.39370072 0.1935797 0.17579436
0.39159852 0.18472017 0.17918211
0.39413637 0.17335607 0.17555183
0.39109164 0.16686817 0.17926705
0.39413851 0.090132356 0.1766715
0.39187115 0.084595293 0.17802358
0.39425701 0.076963603 0.17662668
0.39161539 0.065312564 0.17843777
0.39396363 0.057533026 0.17653078
0.4048816 0.53459388 0.17628819
0.40067852 0.52250528 0.17919719
0.40437686 0.51463574 0.17594188
0.40479839 0.50279051 0.17664689
0.4049598 0.42133287 0.17635185
0.40447783 0.41921562 0.17529541
0.40445447 0.40129495 0.17611647
0.40502834 0.39734125 0.17464757
0.40622556 0.38979408 0.17750281
0.40528774 0.30669516 0.17671901
0.40511608 0.28668082 0.17675227
0.40473187 0.20289664 0.17376286
0.40539694 0.19242303 0.17741239
0.4052062 0.17235093 0.17729431
0.40550232 0.090176612 0.17599779
0.40570366 0.086296439 0.17344511
0.40506899 0.078201681 0.1781795
0.40505362 0.060083628 0.17720973
0.4044714 0.058484316 0.17809606
0.41450071 0.5342257 0.17857707
0.41353869 0.51440895 0.17842925
0.41460872 0.50322145 0.17348713
0.41453838 0.42113712 0.17898875
0.41454792 0.41913092 0.17829508
0.41344571 0.40130413 0.17872775
0.41498208 0.3964549 0.17690635
0.41507459 0.38978904 0.17413479
0.41285312 0.30679509 0.1789974
0.412714 0.28666607 0.17902315
0.41432917 0.20285067 0.17560434
0.41272128 0.1925901 0.17949116
0.41231596 0.17278562 0.17908621
0.41481018 0.090154529 0.17350107
0.41520512 0.08806476 0.17396826
0.41168845 0.079097331 0.17968822
0.41363657 0.060099214 0.17976153
0.41153657 0.059173673 0.17955428
0.42264843 0.53324914 0.17991835
0.42027378 0.5135448 0.17942947
0.42526495 0.50354099 0.17368233
0.42384982 0.39053568 0.17521095
0.42662537 0.38985488 0.17362761
0.4240011 0.2029638 0.17464954
0.42541873 0.090120286 0.17448056
0.42521489 0.08904022 0.17505395
0.42995048 0.040116519 0.17036217
0.4294225 0.034603 0.1704753
0.42810166 0.021542221 0.17026085
0.42914626 0.016196072 0.17053163
0.43895602 0.64207959 0.17053735
0.43784046 0.63659096 0.17037439
0.43816519 0.62438095 0.17040282
0.43925834 0.61838347 0.17046821
0.4349848 0.50349975 0.17604792
0.43457532 0.39031908 0.1784057
0.43961 0.38996151 0.17436206
0.43679357 0.20285474 0.17745453
0.43466461 0.090136737 0.1778338
0.43367243 0.088881701 0.17711413
0.43581271 0.040260732 0.17160195
0.43529165 0.034940302 0.17221385
0.43496764 0.023151278 0.17209834
0.43499383 0.016046643 0.17227381
0.44492686 0.64238238 0.17228681
0.44473255 0.63630211 0.17217183
0.44472492 0.62350607 0.17232615
0.44532764 0.61754131 0.17196512
0.4447695 0.50367767 0.17721462
0.44113576 0.38990191 0.17804193
0.44459009 0.09007144 0.17844683
0.442904 0.088885754 0.17742389
0.44314253 0.040249944 0.1740604
0.44521725 0.035071969 0.17517436
0.44482303 0.023100078 0.17489183
0.44472203 0.016038895 0.17517883
0.45481908 0.64220643 0.17526889
0.45451784 0.63622236 0.17501014
0.4546634 0.62362909 0.17529762
0.45525539 0.61714882 0.1738621
0.45502496 0.50301182 0.17822939
0.45437193 0.39003137 0.17834204
0.45467579 0.2029577 0.17875165
0.45547616 0.089952469 0.17907411
0.45387363 0.04033497 0.17687237
0.45510447 0.034997255 0.17813385
0.4557445 0.022552758 0.17597014
0.45475444 0.016033143 0.17817527
0.46491528 0.6422596 0.1782819
0.46513689 0.63617194 0.17667121
0.46474278 0.62375253 0.17831337
0.46529484 0.61705077 0.17576712
0.46160066 0.50306666 0.17942798
0.46977425 0.15301704 0.17003947
0.46969688 0.1450479 0.17005414
0.46959889 0.13495518 0.17007279
0.46950078 0.12486424 0.17009133
0.46940804 0.11530602 0.17010903
0.46931005 0.1052185 0.17012751
0.46921217 0.095132738 0.17014611
0.46914005 0.087702185 0.17015982
0.4622823 0.040370256 0.17921084
0.46124184 0.035959542 0.17992508
0.46499622 0.022160172 0.17349744
0.46097192 0.013961434 0.17997521
0.47496367 0.63530409 0.17385805
0.47543967 0.61557704 0.17441887
0.47824371 0.6046474 0.17042947
0.47814941 0.59498161 0.17044723
0.47805548 0.58531737 0.17046487
0.47853434 0.57431549 0.17066014
0.47888386 0.56512117 0.17080861
0.47917056 0.55945814 0.17092103
0.47755718 0.50397122 0.17070168
0.47725081 0.49501488 0.17065281
0.47708023 0.48501182 0.17064917
0.47690976 0.47501206 0.17064553
0.47695839 0.46500391 0.17070746
0.47678781 0.45500761 0.17070431
0.47661757 0.44501454 0.17070055
0.47663128 0.43894073 0.17073339
0.47616708 0.39130068 0.17082065
0.47610462 0.38488033 0.1708324
0.47608185 0.37506425 0.17087245
0.47634137 0.36457592 0.17099965
0.47683716 0.35497579 0.17119354
0.47684836 0.34506685 0.17124385
0.47653401 0.3349227 0.17119819
0.47654521 0.32501715 0.17124856
0.47648787 0.31913421 0.17125916
0.47603941 0.27316123 0.17134339
0.47596133 0.26514649 0.17135799
0.47586215 0.25499603 0.17137647
0.47576308 0.24484733 0.17139488
0.47558522 0.23509358 0.17138797
0.47564769 0.2249627 0.17145497
0.47547138 0.21494573 0.17144978
0.47537768 0.20533781 0.17146719
0.47556221 0.15277523 0.17177188
0.47577059 0.14506041 0.17187077
0.47584689 0.13502944 0.17194134
0.47548795 0.1250034 0.1718815
0.475564 0.11497471 0.17195183
0.47542298 0.10495052 0.17195743
0.47528112 0.094929069 0.17196256
0.47525108 0.087358207 0.17198932
0.47517729 0.02197969 0.1752767
0.48545134 0.63550067 0.175924
0.48456573 0.61441541 0.17394739
0.4844234 0.6049509 0.17227656
0.48423541 0.59491885 0.17226839
0.4842279 0.58499765 0.17231292
0.4845643 0.57521629 0.17245984
0.48508966 0.56484926 0.17266637
0.48500776 0.5593186 0.1726681
0.48545051 0.50416189 0.17306238
0.48545861 0.495 0.1731084
0.48531604 0.48507845 0.17311269
0.4851737 0.47515956 0.17311692
0.48512077 0.465137 0.17314893
0.48506486 0.45500749 0.17318028
0.48487747 0.44498622 0.17317182
0.4851253 0.43916929 0.17327356
0.48477173 0.39123893 0.17339522
0.48437786 0.38500643 0.17330676
0.48410273 0.37489817 0.17327261
0.4845432 0.36527711 0.17345017
0.48518133 0.35508132 0.17368937
0.48486328 0.34487465 0.17364258
0.48487425 0.3349103 0.17369336
0.48562264 0.32507181 0.17396384
0.48613501 0.31919158 0.17414504
0.48530412 0.2730554 0.17411554
0.4852246 0.26498795 0.17413008
0.48503852 0.25519404 0.17412084
0.48511255 0.24499184 0.17419142
0.48492873 0.23487923 0.1741842
0.48474252 0.22509232 0.17417508
0.48473287 0.21499519 0.17422026
0.4847405 0.20543571 0.17426795
0.48455429 0.15305895 0.17446059
0.48510551 0.14494608 0.17466414
0.48506391 0.13501173 0.17469901
0.48479807 0.12507556 0.1746664
0.4855895 0.11482817 0.17495161
0.48576868 0.10499939 0.17505217
0.48562562 0.095011353 0.17505682
0.48555064 0.087493747 0.17506981
0.48430991 0.022208631 0.17795819
0.49380541 0.67221904 0.17507565
0.49389076 0.66640192 0.17502701
0.49372935 0.6543743 0.17647308
0.49333465 0.64933914 0.17984688
0.4946053 0.63523394 0.17837775
0.49474835 0.61403084 0.17606717
0.494874 0.60499275 0.17540359
0.4946388 0.5949949 0.17538047
0.49463093 0.58500087 0.17542565
0.49462354 0.57500666 0.17547077
0.49438798 0.56501621 0.17544788
0.49472642 0.55936277 0.17557585
0.49487901 0.50428444 0.17588311
0.49475789 0.49492157 0.17589104
0.49583101 0.48499793 0.17625934
0.4955498 0.47501114 0.1762225
0.49558747 0.46502098 0.17628121
0.49544275 0.45503265 0.17628539
0.49529839 0.44504702 0.17628968
0.49554956 0.43918732 0.1763925
0.4943279 0.39136598 0.17625386
0.49475002 0.38506261 0.17641008
0.49478519 0.37508288 0.17646801
0.49450541 0.36490211 0.17643255
0.49435937 0.3548272 0.17643678
0.49435282 0.34496239 0.17648154
0.49425626 0.3352125 0.17649925
0.49495435 0.32514834 0.17675543
0.4951371 0.31844619 0.17684215
0.49573874 0.27293622 0.17723817
0.49565804 0.2648094 0.17725283
0.49556136 0.25505868 0.17726994
0.49537218 0.245195 0.17726034
0.49536228 0.23502132 0.17730564
0.4953531 0.22484753 0.177351
0.4951638 0.21498966 0.17734116
0.49492228 0.20545781 0.17731428
0.49432337 0.1529904 0.17738414
0.4945147 0.1449907 0.17747909
0.49446177 0.13504298 0.1775108
0.49413693 0.12499216 0.17746091
0.49492538 0.11513804 0.17774361
0.49514818 0.10494366 0.17785871
0.49510586 0.094941497 0.17789358
0.49471331 0.08751291 0.17781144
0.49164736 0.023025215 0.17965508
0.49482056 0.0023259223 0.17620146
0.49515411 -0.0067659616 0.1747182
0.49509045 -0.014045119 0.17527008
0.50301051 0.66316521 0.17479891
0.50084567 0.63433433 0.17942888
0.50523472 0.61350632 0.17857993
0.50538659 0.60503322 0.17854953
0.50519478 0.59507173 0.17853934
0.50518656 0.58500385 0.17858469
0.50508738 0.57504612 0.1786021
0.5050807 0.56508851 0.17864758
0.50457668 0.55940747 0.17852342
0.50395942 0.50462449 0.1785987
0.50319672 0.49504721 0.17841583
0.50418472 0.48495775 0.1787594
0.50408673 0.47512645 0.17877662
0.50406277 0.46511084 0.17881733
0.50388491 0.45492241 0.17881233
0.50378537 0.44491428 0.17882991
0.50319862 0.43930969 0.17868096
0.50355494 0.39141542 0.17901498
0.50311339 0.38490972 0.17891365
0.50308514 0.37472457 0.17895359
0.50298715 0.36491197 0.17897099
0.50288928 0.35510108 0.1789881
0.5027914 0.34529182 0.17900509
0.50276303 0.3351106 0.17904508
0.50251102 0.32478127 0.17901874
0.50252509 0.31859726 0.17905229
0.50312865 0.27285179 0.17945009
0.50304699 0.26468295 0.17946446
0.50294936 0.2548818 0.17948163
0.50285137 0.24508232 0.17949891
0.5027535 0.23528449 0.17951608
0.50259709 0.22520463 0.17951709
0.50260568 0.21488935 0.17956859
0.50245476 0.20535699 0.17956865
0.50202727 0.15290101 0.17968971
0.50179231 0.14526723 0.17965567
0.50069475 0.13533799 0.17937428
0.50059187 0.12502319 0.17939258
0.500489 0.11471021 0.17941064
0.50039148 0.1049417 0.1794278
0.50029409 0.095174849 0.17944497
0.50021815 0.087579519 0.17945844
0.50430059 -0.0060580969 0.17493707
0.39917469 0.53697205 0.18000275
0.3990975 0.52481675 0.18001693
0.3990078 0.51756936 0.18003482
0.39896542 0.50663859 0.18004185
0.39852393 0.42540115 0.18024158
0.39893502 0.41327283 0.18051279
0.39889616 0.40589872 0.18045104
0.3988359 0.39340824 0.18053031
0.39815986 0.31298813 0.18065941
0.39788568 0.30355996 0.18071598
0.39783365 0.29496422 0.18072546
0.39773661 0.28372556 0.18074411
0.39783961 0.27876601 0.18072122
0.39717162 0.20121945 0.18084973
0.39693409 0.19653448 0.18090004
0.39684069 0.18526828 0.18090451
0.39656913 0.17642459 0.18090546
0.396806 0.1672141 0.18098456
0.39782393 0.090063751 0.18069136
0.39599007 0.086484373 0.18108076
0.39591616 0.07399407 0.18107975
0.39570498 0.066630781 0.18115556
0.3955763 0.05477047 0.18114626
0.40501893 0.54084885 0.18154174
0.40516257 0.53702867 0.18163198
0.4048444 0.52487499 0.18163478
0.4049145 0.51711756 0.18168044
0.40496242 0.50596476 0.18164456
0.40510678 0.42510441 0.18215305
0.40544975 0.41330355 0.18245828
0.40538573 0.40593889 0.18227428
0.40545928 0.39343733 0.18250942
0.40939951 0.38991144 0.18071187
0.4047842 0.31310859 0.18263608
0.40449643 0.30363238 0.18269473
0.40451658 0.29516035 0.18259233
0.40476871 0.2836588 0.18284917
0.40446091 0.27871296 0.18269759
0.40467989 0.20180684 0.18286824
0.40546811 0.1963101 0.18339998
0.40513396 0.18504195 0.18331194
0.40517473 0.1759731 0.18342286
0.40520155 0.16703638 0.18348753
0.40666306 0.090113431 0.18206167
0.40448928 0.086608201 0.18362135
0.40520072 0.074477106 0.18371731
0.40508139 0.066806853 0.18396527
0.40502203 0.055096477 0.18373108
0.4148277 0.54096806 0.18446767
0.41530335 0.53674519 0.18385357
0.41449654 0.52477527 0.18447417
0.41516078 0.51690507 0.18407851
0.41510689 0.50566316 0.1841504
0.41569257 0.42488033 0.18481243
0.41515017 0.41330355 0.18534899
0.4152478 0.40539968 0.18476558
0.4148891 0.39321032 0.18526775
0.41507554 0.38989007 0.18147129
0.4145366 0.31320453 0.18555063
0.41555738 0.30438858 0.18442041
0.41493964 0.2951816 0.18573415
0.4158293 0.28446889 0.18451816
0.41499603 0.27862853 0.18584287
0.4157021 0.20193774 0.18544012
0.41596079 0.19453539 0.18426013
0.4148047 0.18486281 0.18617779
0.4155494 0.17446353 0.18434262
0.41471183 0.16704841 0.18633002
0.41508651 0.090140969 0.18398595
0.41476727 0.086324066 0.18655217
0.41550267 0.075285792 0.18541491
0.41565323 0.066531986 0.18693036
0.41540623 0.05616346 0.18521309
0.42451513 0.54088497 0.18736851
0.42493701 0.5360356 0.18522543
0.42513859 0.52494919 0.18769479
0.42503011 0.51616538 0.18543571
0.42545164 0.50527728 0.18695223
0.42513239 0.42406172 0.18641037
0.42497897 0.41443676 0.18697065
0.42477012 0.40449268 0.18634814
0.42495406 0.39422372 0.18707812
0.42238104 0.38992855 0.18386626
0.42398322 0.31326222 0.18837219
0.42460811 0.30613273 0.18539017
0.42474318 0.29532403 0.18860263
0.42441905 0.28529632 0.18527681
0.42471337 0.27855065 0.18874449
0.42534661 0.20211959 0.18759668
0.42440116 0.19447015 0.18595392
0.42377532 0.18497989 0.18885553
0.42427599 0.17398627 0.18590385
0.42333984 0.16709483 0.18890983
0.42476761 0.090174317 0.18568671
0.42367101 0.085844517 0.18859112
0.42366683 0.076034218 0.18659306
0.42277873 0.066503257 0.18879765
0.42381239 0.05706054 0.1862129
0.43169963 0.54078108 0.18952245
0.43358529 0.53554249 0.18671393
0.43242526 0.5243929 0.18954051
0.43445635 0.51521635 0.18597347
0.434026 0.50411153 0.18774849
0.43382585 0.42239618 0.18667567
0.43508029 0.41929463 0.18438619
0.43429148 0.40263683 0.1858505
0.43533099 0.39641181 0.18625975
0.43441629 0.38990238 0.18585032
0.43468177 0.3063395 0.18551672
0.43189514 0.29681462 0.18976843
0.43430352 0.28670317 0.18547869
0.43277812 0.20314083 0.18682128
0.43470049 0.19245975 0.18636674
0.43430698 0.17242543 0.1859706
0.43440628 0.090200335 0.18727124
0.43686152 0.085464597 0.18339777
0.43493891 0.078253686 0.18712705
0.43412352 0.060137153 0.18585426
0.43490493 0.05839166 0.18735307
0.44441307 0.53468978 0.18785018
0.44476593 0.51481736 0.18799675
0.44573998 0.50320756 0.18459791
0.44492662 0.42139569 0.18822539
0.44502878 0.41922244 0.1873557
0.44449687 0.40138963 0.18805844
0.4439981 0.39523971 0.18461162
0.44628704 0.38990143 0.18671227
0.4443233 0.30626714 0.18840659
0.44418085 0.28651944 0.18843108
0.44417524 0.20298123 0.18460947
0.44412172 0.19265126 0.18894804
0.44345725 0.1727353 0.1885193
0.44490492 0.090196609 0.18448955
0.44621313 0.087895304 0.18349493
0.44324756 0.078635395 0.18937242
0.44308782 0.06015411 0.18852097
0.44286764 0.058994055 0.18918228
0.45217288 0.53389502 0.18931776
0.45152164 0.51398361 0.18914187
0.45494199 0.50364596 0.18267655
0.45189619 0.42066166 0.1895178
0.45173919 0.41927099 0.18938231
0.45188141 0.40063003 0.18935168
0.45327246 0.39378619 0.18633485
0.45607197 0.38996097 0.18252981
0.45449948 0.20298712 0.18381369
0.45512319 0.090175599 0.18400753
0.45529461 0.08895269 0.18480641
0.46518028 0.50380516 0.18483341
0.46604943 0.3903577 0.18611103
0.46482337 0.20261168 0.18833613
0.46425176 0.090166539 0.18590599
0.46483195 0.088931888 0.18693912
0.46747673 0.040288776 0.18122149
0.46597314 0.034838706 0.18139154
0.46515536 0.022923827 0.18134058
0.46534917 0.016277462 0.18134719
0.47514451 0.64209586 0.18134254
0.47509158 0.63644195 0.18135184
0.47511184 0.62357175 0.18140256
0.47580111 0.61783195 0.18115783
0.47439122 0.50360566 0.18711114
0.47119641 0.39015794 0.18714434
0.47214246 0.38999408 0.18898803
0.47065747 0.20313053 0.18620235
0.47398031 0.0901241 0.18741018
0.47294772 0.087359965 0.18878752
0.47604823 0.040326804 0.18361425
0.47539401 0.034859627 0.18420845
0.47484827 0.022946298 0.18393755
0.47514126 0.016129136 0.18426907
0.48553944 0.64214838 0.1844458
0.4851855 0.63631976 0.18421948
0.48536766 0.62379652 0.18447566
0.48538351 0.61748534 0.18325996
0.48356104 0.5039143 0.18830281
0.4853642 0.39014146 0.1880188
0.4876169 0.2030338 0.1885891
0.4850949 0.090054542 0.18904221
0.48464239 0.089986444 0.18759447
0.48474956 0.040264517 0.18654609
0.48519444 0.034791231 0.18714315
0.48545921 0.0227274 0.18644691
0.48555598 0.016214848 0.18738407
0.49359798 0.67230415 0.18510717
0.49368894 0.66641212 0.1849665
0.49354458 0.6535551 0.18495774
0.49436581 0.64589727 0.18648344
0.49551058 0.63620645 0.18646115
0.4951961 0.62386644 0.18741524
0.49497545 0.61714458 0.18504524
0.49053335 0.50318456 0.18860584
0.49431062 0.040313035 0.18911403
0.49254632 0.035473615 0.18931144
0.49496913 0.022463471 0.18477505
0.49359569 0.014744431 0.18944734
0.49460277 0.0046674907 0.18557864
0.49496445 -0.0072484314 0.1850872
0.49484584 -0.014038235 0.18511319
0.50279069 0.66323477 0.18473381
0.50144076 0.64333099 0.18906361
0.50413728 0.63573253 0.18501413
0.50152028 0.62342161 0.18928432
0.50445151 0.61670744 0.18578064
0.50862062 0.50252461 0.18000376
0.50854921 0.49540091 0.18001622
0.50844491 0.48499089 0.1800344
0.50834072 0.4745827 0.18005258
0.50824213 0.46472406 0.18006992
0.50814342 0.45486706 0.18008709
0.50804472 0.44501179 0.18010437
0.50798452 0.43898988 0.18011487
0.50857806 0.39146042 0.18051803
0.50851226 0.38489243 0.18052948
0.50841343 0.37504175 0.18054664
0.50831461 0.36519274 0.18056381
0.50821602 0.3553454 0.18058109
0.50817084 0.34521386 0.18061572
0.50795448 0.33484793 0.18059999
0.50790906 0.32471997 0.1806345
0.50784874 0.3187061 0.18064517
0.50738883 0.27280316 0.1807254
0.50730669 0.26461005 0.18073976
0.50720823 0.25477985 0.18075681
0.50710952 0.24495129 0.18077397
0.50701118 0.23512444 0.18079114
0.50691271 0.22529924 0.18080831
0.50706267 0.21483837 0.18090272
0.50786543 0.20541923 0.18118787
0.50712395 0.15300614 0.18121463
0.5070287 0.14486206 0.18122476
0.50609648 0.13490576 0.18099302
0.50591028 0.12495923 0.18098438
0.50572419 0.11501631 0.18097574
0.50568068 0.10494018 0.18101054
0.50560999 0.095000952 0.18103665
0.50559127 0.087512851 0.18106681
0.50348747 0.022469044 0.18459433
0.50404453 -0.0060569048 0.18496084
0.51160836 0.64736909 0.18957061
0.5146277 0.63560438 0.18461013
0.51486993 0.61478758 0.1835953
0.5149318 0.60503173 0.1814065
0.51491797 0.59497714 0.18145001
0.51484597 0.58492565 0.18147629
0.51471603 0.57487142 0.18148464
0.51489902 0.56478053 0.1815874
0.51564229 0.55954444 0.18183494
0.51503038 0.50424731 0.18191415
0.51503813 0.49489444 0.18196106
0.51489055 0.4848761 0.18196428
0.51479077 0.47497162 0.18198115
0.5146898 0.46495882 0.18199879
0.51458919 0.45494774 0.18201619
0.51448977 0.44504836 0.18203324
0.51416266 0.43921909 0.18196297
0.5150249 0.39136815 0.18244815
0.51504993 0.38517746 0.18248534
0.51486158 0.37515029 0.18247616
0.51478958 0.36511755 0.18250233
0.51454318 0.35482588 0.18247753
0.51553679 0.34459007 0.18282348
0.51553643 0.33479884 0.18286979
0.51543665 0.32490528 0.18288702
0.51537573 0.31885999 0.18289733
0.51467359 0.27302548 0.18290466
0.5149653 0.26482272 0.1830312
0.51472759 0.25459981 0.18300831
0.51462805 0.24471998 0.18302536
0.51452839 0.23484182 0.18304235
0.51442873 0.22496533 0.18305963
0.51453114 0.21525837 0.1831364
0.51521206 0.2055601 0.18338609
0.51477957 0.1530367 0.18350595
0.51478577 0.144951 0.1835463
0.51501167 0.13472912 0.18366224
0.51567447 0.12506227 0.18390673
0.51538444 0.11497335 0.18386775
0.51532936 0.10488325 0.18389899
0.51527572 0.094903558 0.18392998
0.51529908 0.087553859 0.18397212
0.51516831 0.022089154 0.18724799
0.52478719 0.63567424 0.18763697
0.52471113 0.61424547 0.18535537
0.52478385 0.60486412 0.18435663
0.52468264 0.59487963 0.18437374
0.52458119 0.58489692 0.18439084
0.52448034 0.57491589 0.18440765
0.52458334 0.56509316 0.18448514
0.52504945 0.55938101 0.18465179
0.52485454 0.50437248 0.18485475
0.52475917 0.49495196 0.18487054
0.52465737 0.48497897 0.18488777
0.52470338 0.47489133 0.18494922
0.52555108 0.46505937 0.18524987
0.52544963 0.45508403 0.18526655
0.52529967 0.44499949 0.18526953
0.52528965 0.43912721 0.18529439
0.52448988 0.3914035 0.18528146
0.52473629 0.38486284 0.18538636
0.5246352 0.37490129 0.18540347
0.52453387 0.36494145 0.18542033
0.52443278 0.35498333 0.18543708
0.52527702 0.3451823 0.18573636
0.5253222 0.33510658 0.18579781
0.52522099 0.32514614 0.18581498
0.525159 0.31906 0.18582505
0.52469218 0.27315837 0.18590331
0.52461362 0.26541954 0.18591648
0.52508307 0.25506234 0.18610615
0.52545655 0.24515717 0.18626511
0.52540064 0.23498714 0.18629611
0.52529836 0.22492594 0.18631339
0.52519751 0.21497695 0.18633044
0.5252558 0.20536755 0.18639362
0.52480841 0.15289128 0.18650883
0.5244844 0.14493968 0.18644935
0.5246973 0.13520734 0.1865595
0.52537334 0.12494802 0.18681049
0.52527213 0.11500886 0.18682754
0.52517068 0.10507134 0.18684429
0.52497947 0.094998568 0.18683499
0.52499044 0.087409556 0.18687409
0.52240336 0.02265352 0.18902761
0.53255022 0.63501704 0.18929291
0.53457868 0.61388648 0.18753868
0.53467786 0.60500073 0.18731821
0.5345757 0.59494853 0.18733501
0.53468204 0.5848192 0.18741524
0.53548205 0.57506573 0.18770128
0.53537929 0.56501108 0.18771815
0.53532207 0.55942583 0.18772739
0.53470075 0.50438845 0.18780255
0.53466439 0.49512407 0.18783563
0.53456163 0.48508331 0.18785238
0.53455997 0.4751429 0.18789899
0.53546083 0.46497256 0.18821698
0.53535843 0.45492944 0.18823403
0.53525496 0.44488809 0.18825096
0.53453231 0.43918669 0.18806148
0.53514993 0.39133883 0.18847352
0.5346415 0.38495487 0.18835151
0.53450871 0.37506711 0.18835878
0.53443897 0.36517686 0.18838447
0.53424263 0.35529828 0.18837261
0.53423643 0.34540606 0.18841785
0.53413367 0.33538368 0.1884346
0.53403103 0.32536304 0.18845123
0.53396821 0.31924009 0.18846178
0.53369951 0.27336276 0.18859911
0.5334152 0.26527563 0.18855232
0.53385139 0.25561261 0.18872893
0.53431582 0.24522717 0.1889171
0.53421283 0.23521462 0.18893391
0.53411055 0.2252038 0.18895054
0.53400755 0.21519466 0.18896753
0.53391087 0.20574321 0.18898332
0.53336954 0.15295471 0.1890716
0.53328979 0.14517948 0.18908465
0.53318727 0.13518421 0.18910128
0.53308475 0.12519073 0.18911821
0.53298235 0.11519893 0.18913496
0.53287971 0.10520884 0.18915159
0.53277755 0.095220506 0.18916839
0.53254163 0.087633461 0.18913376
0.54141355 0.61341918 0.18934524
0.54128087 0.60503936 0.18929535
0.54124582 0.59521985 0.18933141
0.54128683 0.5856421 0.18938911
0.54215705 0.57524621 0.18969899
0.5420531 0.56514585 0.1897158
0.54199529 0.55953526 0.18972516
0.54142416 0.50402033 0.18981755
0.54132605 0.49449277 0.18983334
0.54122794 0.48496681 0.1898492
0.54112995 0.47544241 0.18986499
0.54102612 0.46535948 0.18988186
0.54092252 0.45527828 0.18989861
0.54081881 0.44519883 0.18991536
0.54075539 0.43903995 0.18992567
0.42980063 0.31153005 0.19018197
0.42958558 0.3018752 0.19022256
0.42958772 0.29510349 0.19022095
0.42949498 0.28359154 0.19023716
0.42962384 0.27851132 0.190211
0.42893481 0.20136233 0.19033319
0.42863381 0.19631432 0.1903913
0.42858815 0.1847028 0.19039834
0.42834926 0.17630056 0.19044375
0.42840457 0.16741461 0.1904313
0.4284606 0.086629659 0.19079733
0.42756295 0.074404597 0.19062793
0.42733514 0.066676646 0.19062489
0.42737901 0.055006951 0.1906144
0.43634474 0.54097205 0.19090152
0.43650591 0.53729534 0.1910876
0.43684614 0.52506059 0.19126546
0.43676925 0.51727045 0.191257
0.43667412 0.50640947 0.19127196
0.43582356 0.42542219 0.1913898
0.43489981 0.41329885 0.19125146
0.43490732 0.40549678 0.19118661
0.43486059 0.39349911 0.19119442
0.43534148 0.31269196 0.19178689
0.43538117 0.30397046 0.19189036
0.43563545 0.29526937 0.19193929
0.43544054 0.28356647 0.19201499
0.43557429 0.27846363 0.19198829
0.43472493 0.20175789 0.19196683
0.43456852 0.19634973 0.19212997
0.43470633 0.18505932 0.19212073
0.43454409 0.17596853 0.19220644
0.43414974 0.16707294 0.19214016
0.4364748 0.09014973 0.19161856
0.43548369 0.086601526 0.19289482
0.43520641 0.074402452 0.1927762
0.43531442 0.066686302 0.19301224
0.43518031 0.054945529 0.19292617
0.4443419 0.54092538 0.19329607
0.44502592 0.53702521 0.19341117
0.44570506 0.52490932 0.19381851
0.44572902 0.51719189 0.19376677
0.44559586 0.50569642 0.19353253
0.44504297 0.42518109 0.19396806
0.44481027 0.413302 0.19419932
0.44460523 0.40593475 0.19386315
0.44451225 0.39336789 0.19414151
0.44914865 0.38996303 0.19037235
0.44538569 0.31276432 0.19479179
0.44581711 0.30364424 0.19504029
0.44548094 0.29525033 0.19486755
0.4454571 0.28352419 0.19501084
0.44559968 0.27838331 0.19498318
0.44560993 0.20197186 0.19445342
0.44527388 0.19519536 0.19416928
0.44465947 0.18505761 0.19512409
0.44517112 0.17553137 0.19468379
0.44414949 0.16719006 0.19513279
0.44556463 0.090194941 0.192716
0.44570041 0.086542904 0.19577533
0.44545174 0.07464391 0.19499427
0.44539046 0.066565037 0.19581652
0.4454602 0.055900514 0.19471866
0.45449996 0.54115897 0.19632226
0.45532715 0.53630471 0.19442385
0.45491946 0.52493781 0.19662148
0.45570064 0.51621896 0.19456959
0.45539856 0.50558221 0.19564098
0.4554069 0.42421961 0.19559592
0.45511138 0.41401905 0.19655025
0.45480287 0.40477198 0.19556749
0.45468736 0.39369875 0.19612885
0.450001 0.38999543 0.19120026
0.45503306 0.31298533 0.19767046
0.454916 0.30463618 0.19460553
0.45571339 0.29487336 0.19792694
0.45485914 0.28503358 0.19472468
0.45534992 0.27846473 0.1978727
0.45579755 0.20196986 0.19734329
0.45517802 0.19449455 0.19552177
0.45439911 0.18488196 0.1980713
0.45451009 0.17430067 0.19507623
0.45452833 0.16710345 0.19823372
0.45493662 0.090211838 0.19544011
0.45480311 0.085917383 0.19806904
0.45482922 0.075764626 0.19655979
0.4544524 0.066572368 0.19848579
0.45470917 0.056588262 0.19656396
0.46267772 0.54086214 0.19878501
0.46398568 0.53589308 0.19634622
0.46251488 0.524863 0.19881231
0.46425843 0.51576388 0.19590598
0.46361375 0.50468731 0.19754976
0.46388745 0.42322636 0.19672221
0.46318352 0.41529244 0.1976226
0.46382785 0.40414071 0.19701165
0.4638834 0.39422986 0.19740105
0.46218896 0.38995785 0.19287312
0.46145892 0.31351429 0.1995647
0.46395719 0.30601242 0.19545978
0.46206772 0.29510829 0.19974893
0.46389627 0.28604758 0.19536644
0.46274829 0.27797884 0.19897741
0.46200347 0.20286249 0.19798291
0.46516502 0.19261613 0.19528735
0.46173358 0.18353735 0.19889939
0.4646939 0.17234287 0.19552284
0.46414888 0.090254724 0.19678539
0.46621573 0.082581162 0.19432056
0.46470642 0.077792525 0.19635087
0.4644953 0.060195506 0.1948911
0.46524215 0.058505267 0.19639331
0.47501457 0.53477198 0.19694799
0.47454143 0.51497728 0.19692969
0.47563231 0.50315583 0.19620562
0.47507238 0.42149398 0.19722718
0.47625017 0.41932267 0.19663966
0.47517574 0.40148464 0.19720554
0.47655916 0.39397717 0.19581944
0.47490382 0.30656326 0.19753504
0.47467089 0.28654602 0.19757402
0.47296894 0.27708817 0.19837886
0.47537827 0.20311865 0.19402945
0.47487211 0.19259667 0.19822448
0.47504437 0.17266114 0.19804001
0.47531474 0.090266854 0.19540417
0.47546279 0.086116433 0.19403607
0.47428596 0.078596681 0.19868499
0.4738667 0.060213983 0.19768047
0.47426844 0.058860958 0.19877952
0.48306334 0.53458107 0.19912648
0.48338091 0.51442546 0.19897658
0.48513889 0.50382495 0.19317502
0.48324919 0.42088783 0.199076
0.48390138 0.41915253 0.19896019
0.48351526 0.40088823 0.19919384
0.48521149 0.39288822 0.19466364
0.48120391 0.30664185 0.19942093
0.48095059 0.28653389 0.19946271
0.48641121 0.20301178 0.19340432
0.48006058 0.19296661 0.19960636
0.48181033 0.17349109 0.19954479
0.48588717 0.090220273 0.1933555
0.48413861 0.088861376 0.19405663
0.4801898 0.06022656 0.19956273
0.49333644 0.67218709 0.19478011
0.49345911 0.66639048 0.19480467
0.49331927 0.65358937 0.19476742
0.49473608 0.64713216 0.19483936
0.49558163 0.50392365 0.1939227
0.4949919 0.39054218 0.1964758
0.4952482 0.20284994 0.19742179
0.49419248 0.090174556 0.19401371
0.4943434 0.088835597 0.19695407
0.49868572 0.040379077 0.19062352
0.49749315 0.034981072 0.19081402
0.49713826 0.022580504 0.19097763
0.49675021 0.012839526 0.19362622
0.49442908 0.0050957501 0.19500196
0.49468014 -0.0072244108 0.19490206
0.49464151 -0.014043719 0.19498092
0.50256026 0.66321397 0.19520283
0.5048219 0.64385462 0.19273323
0.50645125 0.63671297 0.19085324
0.50661647 0.62373543 0.19082117
0.50737357 0.61810505 0.19068283
0.50491333 0.50368851 0.19683433
0.50234556 0.39031687 0.19614345
0.50384021 0.20312743 0.19666553
0.50445461 0.09019509 0.19699931
0.50331509 0.087882608 0.1985414
0.50461125 0.040392786 0.19212592
0.50498569 0.035100341 0.1930505
0.50448763 0.022968292 0.19288605
0.50425196 0.014655977 0.19357044
0.50382769 -0.0060096681 0.1949209
0.51426578 0.64497668 0.19472671
0.5148828 0.63649082 0.19304585
0.51528335 0.62390101 0.1934185
0.51510453 0.61765683 0.19254959
0.51398969 0.50384188 0.19715226
0.5175916 0.39026609 0.197649
0.51566875 0.090116411 0.1984545
0.51416492 0.040379256 0.19508511
0.51506841 0.034811288 0.19608134
0.51520431 0.02291584 0.19595915
0.51497471 0.014364928 0.19644994
0.51257992 0.0096112788 0.19483662
0.5248307 0.64280641 0.19643468
0.52511907 0.63635659 0.19586068
0.52519047 0.62367558 0.19636965
0.5249722 0.61744142 0.19449943
0.52364218 0.5033319 0.19880831
0.52216017 0.20311464 0.19891095
0.52302885 0.090056896 0.19926554
0.52518368 0.040395021 0.19837028
0.52383685 0.035222322 0.19868726
0.52532947 0.022517771 0.19497329
0.52356303 0.015390486 0.19864422
0.5335145 0.64259017 0.19876868
0.53452444 0.63619888 0.19578338
0.53316295 0.62367058 0.19875139
0.53509414 0.61707556 0.19602311
0.53996658 0.36238986 0.19005311
0.539886 0.35456279 0.19006616
0.5397824 0.34450087 0.19008291
0.53968453 0.33499953 0.19009876
0.53958678 0.3254998 0.19011456
0.5395236 0.31935367 0.19012475
0.53905237 0.27355811 0.19020092
0.53896618 0.26518485 0.19021481
0.53886271 0.25513849 0.19023156
0.53875935 0.24509385 0.19024831
0.538656 0.23505096 0.19026506
0.53855264 0.22500981 0.19028175
0.53844929 0.21497042 0.19029844
0.53835166 0.20549037 0.19031423
0.53781259 0.15309931 0.19040143
0.53877306 0.14437787 0.19073045
0.53873801 0.13460088 0.19076622
0.5385716 0.12483937 0.19076288
0.53853691 0.11509761 0.19079864
0.53843367 0.1050697 0.19081533
0.53833044 0.09504354 0.19083196
0.53837705 0.087538749 0.19088155
0.53488362 0.021992356 0.19352001
0.54471791 0.63570666 0.19392282
0.54575419 0.61514914 0.19346309
0.54695356 0.60502011 0.19099396
0.54684889 0.59488386 0.19101089
0.54665971 0.58493447 0.19100159
0.54664326 0.57499254 0.19104379
0.54662728 0.56505048 0.19108588
0.54648447 0.5596084 0.19106919
0.54581738 0.50448918 0.19113094
0.54581833 0.4951182 0.19117564
0.54571402 0.48500115 0.19119227
0.54560935 0.47488585 0.19120932
0.54595256 0.46448779 0.19136101
0.54662633 0.45492578 0.19160849
0.54642701 0.44494948 0.19159615
0.54569292 0.43920472 0.19140351
0.54419076 0.39146295 0.19118017
0.54468572 0.38505009 0.19135886
0.54458141 0.3749522 0.19137543
0.5450412 0.36516437 0.19155979
0.54549491 0.35481149 0.19174469
0.54539001 0.34471124 0.19176155
0.54528582 0.33461276 0.191778
0.5452795 0.32464623 0.1918233
0.54445183 0.31911772 0.19160175
0.54465425 0.27349839 0.19187886
0.54456735 0.26509327 0.19189274
0.54446316 0.25500867 0.19190925
0.54504263 0.24463095 0.19213217
0.54538071 0.23480326 0.19228005
0.54527664 0.22471628 0.1922968
0.54507124 0.21473838 0.19228262
0.54507589 0.20533241 0.19232857
0.54453516 0.15303788 0.19241494
0.54542458 0.1451986 0.19271863
0.54547095 0.13501436 0.19278049
0.54536653 0.12493715 0.19279712
0.54516673 0.11500122 0.19278449
0.54516065 0.10506836 0.19282991
0.54505622 0.094996303 0.19284642
0.54497826 0.087443411 0.19285893
0.54529119 0.022181094 0.19626236
0.55615616 0.63553083 0.19745421
0.55639315 0.61410081 0.1958887
0.557091 0.60498166 0.19568193
0.55708253 0.59501755 0.19569737
0.55703938 0.58497912 0.19567311
0.55699575 0.57494104 0.19564879
0.55665267 0.56513602 0.19558769
0.55830729 0.55885231 0.19759458
0.55651689 0.50408483 0.19540596
0.55657613 0.49494755 0.19557118
0.55657744 0.48513031 0.19562894
0.55652237 0.47516394 0.19561166
0.55650902 0.46536204 0.19564241
0.55689847 0.45491028 0.19585574
0.55688798 0.44482613 0.19589984
0.5571425 0.43889871 0.19634748
0.55643892 0.39134657 0.19567472
0.55654657 0.38491693 0.19594949
0.55644786 0.37493613 0.19594449
0.55579889 0.36535776 0.19554853
0.55557823 0.35523614 0.19545883
0.55550098 0.34507179 0.19547051
0.5554235 0.33490872 0.19548213
0.55611181 0.32476711 0.1956138
0.55707431 0.31875929 0.19610387
0.55569565 0.27338412 0.19567704
0.55507922 0.26513544 0.1952228
0.55464554 0.2547726 0.19496012
0.5550102 0.24501073 0.19511563
0.5555768 0.23499292 0.19533288
0.55557287 0.22526701 0.19537759
0.55537033 0.21524496 0.19536483
0.55527055 0.20565583 0.19538027
0.55455899 0.15308015 0.19541687
0.55463827 0.14505637 0.19547832
0.55463111 0.13505799 0.19552386
0.55442929 0.12505752 0.19551069
0.55447686 0.1148105 0.19557357
0.55531085 0.10498336 0.19586998
0.55525911 0.095066041 0.19590193
0.55528462 0.08762601 0.19594467
0.55458307 0.022621512 0.19877827
0.5606668 0.61342907 0.19506156
0.56057775 0.6049031 0.19507539
0.56047082 0.59467363 0.1950919
0.56036997 0.5850141 0.19510752
0.56026912 0.57535619 0.19512314
0.56010222 0.56438076 0.19557875
0.56006455 0.55937338 0.19569176
0.56036198 0.50444067 0.19617015
0.56042707 0.49482447 0.19615769
0.56049609 0.48464122 0.19614464
0.56056142 0.47502246 0.19613224
0.56038105 0.46464822 0.19658971
0.56037116 0.45512405 0.19669724
0.56042624 0.44493899 0.19668645
0.56045675 0.43928015 0.19668055
0.56049085 0.39149007 0.19656062
0.56042802 0.38490933 0.19667745
0.56039238 0.37471235 0.19668198
0.56027746 0.3644467 0.1970405
0.56023026 0.35525408 0.19728303
0.5602324 0.34523955 0.19724011
0.56023169 0.33504906 0.1972388
0.56037533 0.32485357 0.19774914
0.56040728 0.3186276 0.19774282
0.56064856 0.27333504 0.19769603
0.56052327 0.26442418 0.19811684
0.56052446 0.25466067 0.19824904
0.56063282 0.24503338 0.19822961
0.5606215 0.23540974 0.19822991
0.56060958 0.22522005 0.19823068
0.56059778 0.21503048 0.1982311
0.56058645 0.20540701 0.19823164
0.56054771 0.15316303 0.19829363
0.56054306 0.14483376 0.19823015
0.56054401 0.13464269 0.19822866
0.56054366 0.1248174 0.19826996
0.56056941 0.11538881 0.19822156
0.56085253 0.10519755 0.19870842
0.56090748 0.094996303 0.19869792
0.56094742 0.087628037 0.19869035
0.45979166 0.085660219 0.20022613
0.45961404 0.074792922 0.20025641
0.45954514 0.067020506 0.20026749
0.45953798 0.055081487 0.20026702
0.46788979 0.54112303 0.20033067
0.46754754 0.53738201 0.20039135
0.46741796 0.52521926 0.20041269
0.46727753 0.51746881 0.20043653
0.4673233 0.50650901 0.20042688
0.46753132 0.4255335 0.20087498
0.4673202 0.41329977 0.20091063
0.46717072 0.40564138 0.20093626
0.46714282 0.3936291 0.20088953
0.4663974 0.31318444 0.20106
0.4660815 0.30326375 0.20111483
0.46624124 0.29491714 0.20108515
0.46593738 0.28343779 0.2011376
0.46605575 0.27874133 0.20111567
0.46589649 0.20164546 0.20133191
0.46529579 0.19647039 0.20137614
0.46495962 0.18507276 0.20125633
0.46465898 0.17619161 0.20130819
0.46491492 0.16711907 0.20134062
0.46599495 0.090165615 0.20109826
0.46458614 0.086838692 0.20159751
0.46552074 0.074455738 0.20184237
0.46555507 0.066670448 0.20206755
0.4654938 0.055130631 0.20200044
0.47520363 0.54098696 0.20252687
0.47490668 0.53708863 0.20246738
0.47478867 0.52509576 0.20255572
0.47478044 0.51725042 0.20259744
0.47465849 0.50632685 0.20253605
0.4754777 0.42506823 0.20320147
0.47528875 0.4134067 0.20331484
0.47585344 0.40576065 0.20336372
0.47524929 0.3935371 0.20335239
0.47478986 0.31333065 0.20356292
0.47444534 0.30334899 0.20362157
0.47447658 0.29490316 0.20356935
0.47430825 0.28340247 0.20364243
0.47443378 0.2786774 0.20361978
0.47605062 0.20190832 0.20354515
0.475263 0.19570924 0.20410019
0.47549772 0.18498516 0.20433253
0.4747268 0.17561845 0.20405108
0.47537684 0.16723958 0.20447284
0.47535932 0.090237111 0.2020945
0.4745115 0.08661449 0.20457417
0.47483563 0.074472517 0.20425314
0.4751153 0.066793263 0.2049256
0.47527671 0.055656046 0.20409209
0.4847672 0.54129899 0.20537251
0.48581648 0.53675318 0.20425195
0.48531103 0.52505887 0.20569617
0.48572147 0.51659971 0.20426518
0.48505998 0.50571132 0.20497829
0.48517752 0.42501533 0.20511514
0.48519576 0.41360584 0.20601493
0.48525596 0.40519306 0.20495826
0.48501706 0.39329508 0.20537776
0.4851675 0.31332192 0.20666856
0.48569083 0.30490187 0.20422393
0.4849745 0.29499412 0.20669478
0.48549926 0.28476486 0.20425421
0.48504448 0.27859643 0.20679182
0.48419249 0.20202199 0.20673734
0.4854604 0.19455907 0.20464426
0.48488617 0.18494017 0.20712906
0.48521686 0.17418991 0.20470744
0.48500955 0.16716796 0.20735282
0.48518109 0.090242326 0.20506543
0.48519111 0.086081803 0.20723802
0.48480725 0.075395644 0.20594817
0.48480392 0.066429168 0.20761424
0.48477757 0.056236237 0.20590848
0.49315035 0.67232525 0.20486385
0.49319398 0.6664809 0.20501155
0.49308419 0.65365362 0.20502824
0.49440157 0.64721036 0.20491844
0.49440491 0.54106754 0.20827013
0.49503303 0.53590733 0.20616454
0.49501657 0.52490741 0.20857316
0.49524128 0.51597458 0.20602661
0.49484289 0.50535417 0.20722789
0.49435925 0.42403248 0.20664078
0.49403429 0.41432816 0.2076264
0.49417233 0.40422052 0.20666438
0.49417341 0.39364585 0.20717198
0.49383628 0.31328213 0.20926505
0.49422681 0.30572101 0.20539671
0.49301684 0.2952815 0.20903891
0.49417007 0.28541157 0.20543092
0.49256289 0.27853906 0.20903975
0.49320161 0.20261884 0.20703024
0.49383974 0.19366129 0.20544189
0.49172556 0.18491986 0.20916575
0.49385762 0.17366661 0.20570487
0.49119651 0.16724692 0.20920545
0.49485338 0.090301633 0.20619804
0.49231577 0.085336208 0.20854491
0.49347043 0.076790839 0.2067222
0.49120045 0.066658288 0.20973772
0.4935137 0.057616651 0.20666081
0.49630937 0.010770708 0.20521694
0.49419937 0.005120635 0.20466524
0.49451837 -0.0070218146 0.20493847
0.49438187 -0.013888508 0.20467609
0.50233197 0.66321909 0.20538133
0.50211835 0.64575255 0.20473784
0.50461268 0.53510988 0.20624048
0.50042582 0.52309006 0.2092846
0.50552189 0.51514649 0.20623833
0.50504506 0.50325686 0.2075035
0.50462294 0.42155579 0.20603472
0.50560522 0.41945028 0.20536119
0.505391 0.40222529 0.20660347
0.50640571 0.39484394 0.20538789
0.50480568 0.30693614 0.20649797
0.50469768 0.2865774 0.20659775
0.50796938 0.20329024 0.20441419
0.50479615 0.19266602 0.20719451
0.50495446 0.17255764 0.20711726
0.50524414 0.090311497 0.20647448
0.50502563 0.085512012 0.203798
0.50446868 0.078379214 0.20789713
0.50466561 0.058724731 0.20809168
0.50264132 0.011019856 0.2051124
0.50359523 -0.0058935285 0.20511931
0.51379156 0.64633501 0.20484775
0.51381683 0.53492564 0.20853931
0.51448131 0.51487386 0.20860285
0.51535726 0.50390935 0.20327705
0.51388848 0.42131224 0.20854527
0.51547849 0.41937873 0.2083239
0.51444101 0.40126234 0.20863038
0.51540148 0.39296868 0.20480245
0.5135448 0.30704492 0.20913488
0.51324809 0.28647155 0.20918041
0.5138303 0.20286773 0.20455593
0.51219594 0.19305864 0.20924598
0.51375496 0.17328505 0.20920926
0.51548374 0.090276062 0.20416039
0.51411498 0.087658912 0.20387703
0.51081443 0.078519821 0.20954674
0.51308548 0.059724927 0.20968515
0.51493657 0.010833174 0.20512289
0.51236963 0.0095391273 0.20400876
0.52061319 0.64583004 0.20527667
0.52188897 0.53388238 0.20986325
0.52141762 0.51416743 0.20993644
0.52517021 0.50397563 0.2034654
0.5215143 0.42048821 0.20990747
0.52096558 0.41933236 0.20999581
0.52451944 0.39046934 0.20528919
0.52351534 0.20324737 0.2043919
0.52484298 0.09023267 0.20415229
0.52461147 0.088485479 0.20548803
0.52989519 0.040460885 0.20017642
0.52919018 0.035110146 0.20029491
0.52892911 0.023872316 0.20033723
0.52607191 0.014491886 0.20175987
0.53872299 0.64179778 0.20035249
0.53853881 0.63698697 0.20043045
0.5386163 0.6242491 0.20040816
0.53525484 0.50398231 0.20609242
0.53504109 0.39049441 0.20615679
0.53739619 0.20307715 0.20770341
0.53456473 0.090218216 0.20583147
0.53420353 0.088666618 0.20864516
0.53568935 0.04028976 0.20182186
0.53473163 0.034830868 0.20196658
0.53534627 0.022606075 0.20222622
0.53487468 0.016167253 0.20212907
0.54523182 0.64244938 0.20227665
0.54549646 0.63653928 0.20226496
0.54536176 0.62386489 0.20240718
0.54520476 0.61800349 0.20175487
0.54422295 0.50424826 0.20739096
0.54016018 0.20312808 0.2037254
0.5445087 0.090238452 0.20854872
0.54297459 0.087730676 0.20953912
0.54497504 0.040415436 0.20414251
0.54496384 0.035026729 0.2050212
0.54514027 0.023156852 0.20488518
0.54497361 0.015953004 0.20514411
0.5566144 0.64398873 0.2053389
0.5567019 0.63479781 0.2045638
0.55602551 0.62483203 0.20550531
0.55716741 0.61497909 0.20411688
0.55817139 0.60502011 0.20401794
0.55817151 0.59496421 0.20406753
0.55818164 0.58491063 0.20401305
0.5581969 0.57493204 0.20395702
0.55817926 0.56504178 0.20395905
0.55821967 0.55707896 0.20444566
0.55763292 0.50265819 0.20445102
0.55824971 0.49481082 0.20398885
0.55827451 0.48491138 0.20387679
0.55829442 0.47510287 0.20397884
0.55830836 0.46512741 0.20399195
0.55850756 0.45510346 0.20445758
0.55852807 0.44517225 0.20452076
0.55852425 0.43807146 0.20474273
0.55623817 0.39061007 0.20411509
0.55859661 0.38511199 0.20447868
0.55858469 0.37525758 0.20453984
0.5586071 0.36525086 0.20444351
0.55861652 0.3551099 0.20444041
0.55862594 0.34496862 0.20443767
0.55863464 0.33482704 0.20443457
0.5586462 0.32468522 0.20443112
0.55865526 0.31848732 0.20442873
0.55874753 0.27340659 0.20440727
0.55876625 0.26495281 0.2044031
0.55878782 0.25480774 0.20439821
0.55880952 0.24466212 0.20439309
0.55882382 0.2347178 0.20458215
0.55898976 0.22520438 0.20475286
0.55898643 0.21536067 0.20489186
0.55897665 0.20634408 0.20489174
0.55890691 0.15414129 0.20572907
0.55895579 0.14495085 0.20541841
0.55896378 0.13516563 0.20530039
0.55897236 0.12522577 0.20541316
0.55899262 0.11507952 0.20540863
0.55900133 0.10500294 0.20545799
0.55892539 0.094863266 0.20553941
0.55933774 0.088812381 0.20346528
0.55534244 0.040570378 0.20757514
0.55528224 0.035152137 0.20806915
0.55764127 0.023950547 0.20612329
0.55585504 0.015300632 0.20811731
0.55904663 0.0094020069 0.20751041
0.56471658 0.64395356 0.20839864
0.56437671 0.63492823 0.20835382
0.56426477 0.62491655 0.20836967
0.56405985 0.61490083 0.20835954
0.56413639 0.60509324 0.20842808
0.56393147 0.59508127 0.20841795
0.56381977 0.58507693 0.20843416
0.56370795 0.57507437 0.2084499
0.56359398 0.56488508 0.20846647
0.56349933 0.55639541 0.20848018
0.56407714 0.50179291 0.20891446
0.56403661 0.49501014 0.20891994
0.56381953 0.48496729 0.20890695
0.56391752 0.47507221 0.20898122
0.56370139 0.46503314 0.20896822
0.56364453 0.4553529 0.2090022
0.56339359 0.44525364 0.20898038
0.56337929 0.43761468 0.20901269
0.5626812 0.39014757 0.20911509
0.56285977 0.38478655 0.20911771
0.56261015 0.37521362 0.20909315
0.56257069 0.36532357 0.20912892
0.5624572 0.35516539 0.20914537
0.5623436 0.34500912 0.2091617
0.56222999 0.33485478 0.20917803
0.56211638 0.32470232 0.2091946
0.562047 0.31849891 0.20920426
0.56154251 0.27340525 0.20927685
0.5614481 0.26495442 0.20929044
0.56134796 0.25481468 0.20930463
0.56125844 0.24467626 0.20931727
0.5611738 0.23510239 0.20932907
0.56221426 0.22548212 0.2096954
