# .PCD v0.7 - Point Cloud Data file format
VERSION 0.7
FIELDS x y z
SIZE 4 4 4
TYPE F F F
COUNT 1 1 1
WIDTH 1404
HEIGHT 1
VIEWPOINT 0 0 0 1 0 0 0
POINTS 1404
DATA ascii
0.51557684 -0.024294704 -0.38807032
0.51778686 -0.031940162 -0.38917655
0.52330828 0.6754148 -0.38202628
0.52633488 0.66673398 -0.38249391
0.52080858 0.65434152 -0.38191774
0.52372235 -0.0038456321 -0.38501912
0.52526623 -0.01371628 -0.38741177
0.52378792 -0.023453981 -0.38854471
0.53776723 0.68302822 -0.38921046
0.53463203 0.67568874 -0.38379651
0.53492767 0.66595101 -0.38265598
0.53611314 0.65553105 -0.38422194
0.53585583 -0.0063938498 -0.38669428
0.53699368 -0.013608634 -0.38754553
0.53691334 -0.023000538 -0.38839906
0.53196752 -0.029874891 -0.38956985
0.54225963 0.67325819 -0.38401195
0.54448473 0.66631818 -0.38229212
0.54639918 0.65758562 -0.38112223
0.54708171 -0.0072415471 -0.38715738
0.54756421 -0.014209688 -0.38719794
0.54634136 -0.023917466 -0.38623324
0.54593056 -0.029938906 -0.38856891
0.55357492 0.67534184 -0.38618189
0.55558777 0.66662872 -0.383834
0.55433691 0.65497792 -0.38382196
0.55872297 0.65030861 -0.38465089
0.55621612 -0.0067718625 -0.38553259
0.55587214 -0.0141868 -0.38456658
0.55751961 -0.024083853 -0.3868407
0.55365288 -0.030860662 -0.38860324
0.56445539 0.67535019 -0.3868835
0.56441003 0.66583788 -0.38416854
0.56620967 0.65588278 -0.38221854
0.56041807 0.65037286 -0.38137522
0.56639099 -0.0060158968 -0.38464814
0.56588131 -0.014157027 -0.38231799
0.56484687 -0.02443257 -0.38607019
0.56587625 -0.02984786 -0.38665617
0.57428533 0.67297995 -0.38730544
0.57478786 0.66620338 -0.38426545
0.57628268 0.65492094 -0.38438839
0.57632029 0.64971125 -0.38553411
0.57745314 0.0033137202 -0.38376445
0.57357061 -0.0031317472 -0.38440028
0.57390523 -0.014560133 -0.3810555
0.57573402 -0.023966581 -0.38350379
0.57701129 -0.031836987 -0.38675272
0.58683032 0.67543781 -0.38890621
0.58686048 0.66481149 -0.38441798
0.58564878 0.65540266 -0.38295117
0.58822095 0.64941436 -0.38533637
0.58946031 0.27747032 -0.38019314
0.58985215 0.22552335 -0.3804588
0.58972865 0.20146134 -0.38037843
0.58979404 0.19580963 -0.38229948
0.58941948 0.14509617 -0.38092643
0.58885789 0.13535811 -0.38298354
0.58894879 0.12549397 -0.38486868
0.587955 0.11599843 -0.38509685
0.58884305 0.10637224 -0.38447654
0.58816022 0.095448077 -0.38557428
0.58881956 0.085588306 -0.38564494
0.58814269 0.076002657 -0.38512498
0.58605373 0.065880239 -0.38408101
0.58586395 0.055981606 -0.38398436
0.58736664 0.045919001 -0.3850776
0.58683425 0.036320597 -0.38437861
0.58395559 0.025802523 -0.38398564
0.58410478 0.015865505 -0.38307497
0.58377236 0.006216526 -0.38239363
0.58415532 0.00073584914 -0.38490471
0.58112299 -0.014690071 -0.3806195
0.58379841 -0.030548781 -0.38241917
0.59176773 0.67259353 -0.38846719
0.59477615 0.66722167 -0.38370472
0.59757447 0.64842582 -0.38482073
0.59937364 0.41191137 -0.38075769
0.59924942 0.4052107 -0.38341743
0.59917492 0.39533928 -0.38294774
0.59930807 0.38560882 -0.38413468
0.5973348 0.37613669 -0.38242155
0.59589195 0.36630726 -0.38167858
0.59503007 0.35574296 -0.381511
0.5959515 0.3454909 -0.38150504
0.59614569 0.33629566 -0.38179302
0.59327185 0.3260417 -0.38081837
0.59537852 0.31570503 -0.38142759
0.59606069 0.30604774 -0.38158101
0.59463847 0.29585955 -0.3818087
0.59639072 0.28568274 -0.38620219
0.59670109 0.27512437 -0.38770822
0.59556127 0.26570761 -0.38511631
0.59585828 0.25626034 -0.38457185
0.59543699 0.24606255 -0.38472897
0.59353369 0.23660433 -0.38446009
0.59205282 0.22621855 -0.38445067
0.59326363 0.21527021 -0.38428065
0.59379095 0.20594865 -0.38413942
0.59140003 0.19549672 -0.38397327
0.59263939 0.1852988 -0.38342938
0.59305257 0.17630015 -0.38328007
0.59351343 0.16568859 -0.38327876
0.59335476 0.15604326 -0.38414127
0.59370697 0.14614348 -0.38470533
0.59482318 0.13642588 -0.38549468
0.59623188 0.12676564 -0.38310337
0.59983236 0.11208086 -0.38334805
0.59782422 0.10581693 -0.38484907
0.59775227 0.095410109 -0.38438895
0.59937125 0.086038321 -0.38229012
0.59960359 0.076396197 -0.38251066
0.59972811 0.067050815 -0.38313168
0.59971213 0.054802805 -0.38312232
0.599585 0.047085375 -0.38243508
0.59776497 0.034132272 -0.38192332
0.59608561 0.025232375 -0.38121015
0.59966737 0.015793353 -0.38265106
0.59916651 0.005882442 -0.38384679
0.59596384 0.00015750527 -0.38197124
0.60191715 0.67161262 -0.38392907
0.60202944 0.66937757 -0.38349983
0.60933155 0.5834704 -0.38126749
0.60945934 0.57601357 -0.38135192
0.60806489 0.56528944 -0.3815746
0.60902959 0.55595618 -0.38302112
0.60903013 0.54617965 -0.38107255
0.60884619 0.53553909 -0.38331121
0.60908186 0.52621365 -0.38405558
0.60862797 0.51550019 -0.3838397
0.60815054 0.50578272 -0.38352591
0.60721743 0.49599177 -0.38291153
0.60393131 0.48611265 -0.38134968
0.60672468 0.47583604 -0.38264626
0.60782075 0.46499577 -0.38432392
0.60746104 0.45607179 -0.3852008
0.60687959 0.44603309 -0.38496801
0.60536665 0.43577522 -0.38507494
0.60318297 0.42628342 -0.38444373
0.60305363 0.41656786 -0.38448039
0.60106587 0.4069398 -0.38429394
0.60126466 0.39623001 -0.38465348
0.60026848 0.3860774 -0.38307601
0.60264331 0.29457176 -0.38815445
0.60523123 0.2895076 -0.38387325
0.60366327 0.26537222 -0.38039854
0.60352468 0.25754443 -0.38049671
0.60324556 0.24413034 -0.38031363
0.60311079 0.23582813 -0.38022569
0.60457653 0.22465859 -0.38078079
0.60510194 0.21590984 -0.38078457
0.60581845 0.2062593 -0.38125709
0.60593766 0.19681965 -0.38128555
0.60498244 0.18509747 -0.3808825
0.60595077 0.17522453 -0.3807486
0.60663831 0.16543919 -0.38151664
0.60579813 0.15677501 -0.38113746
0.60419732 0.14633371 -0.38121566
0.60343105 0.13660467 -0.38178009
0.60309714 0.12496281 -0.38143265
0.60412079 0.11598136 -0.38305682
0.60254806 0.10546282 -0.38199693
0.60382646 0.096172005 -0.38193366
0.60594618 0.085802943 -0.38210699
0.60683638 0.07602331 -0.38283184
0.60566086 0.066547036 -0.38342908
0.60071063 0.057775915 -0.38217467
0.60086447 0.041711003 -0.38328382
0.60105079 0.037547618 -0.38303044
0.6004675 0.01956737 -0.38151395
0.60051793 0.0056215227 -0.3833591
0.60539931 -0.0025907755 -0.38326615
0.61185539 0.67238706 -0.38443521
0.61506134 0.64564914 -0.38635445
0.61552602 0.63665175 -0.38566956
0.61398029 0.62535995 -0.38420469
0.61464721 0.61656749 -0.38631544
0.61534655 0.60622758 -0.38323036
0.61487931 0.59500962 -0.38450885
0.61279583 0.58580416 -0.38545442
0.61214113 0.57591641 -0.3852503
0.61189651 0.5654645 -0.38651893
0.61144006 0.55588686 -0.38687307
0.61240816 0.54617447 -0.38655487
0.61156172 0.53633875 -0.38653365
0.61138356 0.5259524 -0.38628441
0.61316538 0.51786292 -0.38987643
0.61286664 0.50361758 -0.38967985
0.61299688 0.49590099 -0.38976672
0.61075014 0.48589599 -0.38904133
0.61074889 0.4765335 -0.38899049
0.61058778 0.46719843 -0.38893548
0.61199319 0.33385816 -0.38000348
0.61038327 0.2927193 -0.38046718
0.61281729 0.1648332 -0.38116214
0.61535907 0.15650019 -0.38247293
0.61813873 0.14708015 -0.38581619
0.61136353 0.06367594 -0.38492149
0.61366326 0.056094617 -0.38719681
0.61504686 0.047191799 -0.38780451
0.62188774 0.6751411 -0.38644752
0.62107176 0.63113511 -0.38897276
0.62024367 0.62837994 -0.38919336
0.62029773 0.61342096 -0.38846597
0.62083322 0.60579258 -0.38881814
0.62221253 0.59904057 -0.38627592
0.62699151 0.38494501 -0.38062957
0.6266945 0.37843338 -0.38043812
0.62973183 0.36432916 -0.38163802
0.62734389 0.35380495 -0.38085985
0.62833691 0.34344786 -0.38073879
0.62833655 0.34019887 -0.38073885
0.62969249 0.32334304 -0.38161588
0.6296922 0.32009035 -0.38161594
0.6243636 0.23502415 -0.38351697
0.62725395 0.22709452 -0.3853969
0.6206823 0.14250094 -0.386466
0.62281346 0.13789983 -0.38811484
0.63675404 0.6786297 -0.38999575
0.63734186 0.36217332 -0.38578334
0.63734168 0.35955513 -0.38578334
0.63360262 0.34824136 -0.38337216
0.63208431 0.33513728 -0.38239372
0.63346159 0.32866487 -0.38328272
0.63568223 0.31500867 -0.3847976
0.63238513 0.30615389 -0.38275185
0.63514137 0.30062959 -0.38590446
0.63575298 0.22210002 -0.3893832
0.63363212 0.21657602 -0.38859832
0.63538742 0.21034196 -0.38914689
0.64123613 0.63686216 -0.38134432
0.64721715 0.62599647 -0.38439757
0.64650488 0.61567354 -0.38402009
0.64687008 0.60596162 -0.38596612
0.64064282 0.31511158 -0.3871457
0.6412102 0.29573429 -0.38899636
0.64245266 0.28952068 -0.38908625
0.65120244 0.63436931 -0.3869423
0.65063494 0.62034196 -0.386581
0.65094298 0.60283422 -0.38703769
0.65283847 0.59917939 -0.38876578
0.1968562 -0.0068936944 -0.3759191
0.196169 -0.010104805 -0.37691957
0.2054016 0.011976421 -0.37641355
0.20524685 0.0054837465 -0.37701967
0.20407294 -0.0023894012 -0.37611455
0.21074043 0.011384755 -0.37130702
0.2199173 0.0083846152 -0.37780696
0.22726046 0.6831522 -0.37925822
0.22795299 0.67389524 -0.37993076
0.22513182 0.66776562 -0.37826565
0.22364469 0.007173568 -0.3766264
0.23682852 0.69241035 -0.37573564
0.23797195 0.68653238 -0.37551087
0.23624049 0.67469579 -0.37360772
0.23686913 0.66992486 -0.37346005
0.23565918 0.0035342276 -0.37739855
0.24338052 0.69717872 -0.37084529
0.23987542 0.68727505 -0.37368512
0.24462351 0.67278254 -0.37226319
0.24154115 0.67049551 -0.37162367
0.26000008 -0.0019589961 -0.37254512
0.26709613 0.0033791661 -0.37018305
0.2634173 -0.0017494559 -0.37524754
0.27517885 0.67584562 -0.37237236
0.2734018 0.016274065 -0.37593839
0.27261648 0.0063148141 -0.37502211
0.27055958 -0.0043259859 -0.37844989
0.28556585 0.68242782 -0.37277836
0.28495809 0.67887205 -0.37362567
0.29916412 0.66531432 -0.37910452
0.30846089 0.68154913 -0.37886649
0.30860651 0.67735016 -0.37734041
0.30622524 0.66582799 -0.37689713
0.31023732 0.68292338 -0.37682116
0.31190005 0.67583269 -0.37585029
0.31161147 0.66590369 -0.37581238
0.3118141 0.65862298 -0.37528762
0.35673681 0.011739224 -0.37667662
0.3564716 0.0064772069 -0.37645671
0.35946909 0.00074335933 -0.37894842
0.36000758 -0.016573548 -0.37939775
0.36668426 0.0033475161 -0.37955976
0.3609294 -0.015125543 -0.37882388
0.36077777 -0.02104637 -0.37936828
0.39484435 0.67495799 -0.37259123
0.39569411 0.66677874 -0.37326673
0.39514655 0.65857077 -0.37305999
0.40401191 0.6842289 -0.37918466
0.40578872 0.67617655 -0.37717101
0.40616849 0.66453809 -0.37692353
0.40525374 0.65862012 -0.37615985
0.41221562 0.67589444 -0.37845233
0.41551483 0.66470635 -0.37813279
0.41298503 0.65879452 -0.37735373
0.42276004 0.67560846 -0.37847021
0.42423224 0.6651839 -0.37823448
0.42429683 0.65922463 -0.37790552
0.43396279 0.67509019 -0.37854069
0.43372345 0.6660614 -0.37858278
0.43140873 0.65816414 -0.3770436
0.43275893 0.0027301311 -0.37897649
0.43275866 -0.00010308623 -0.37897652
0.4439896 0.67511225 -0.37814283
0.44557479 0.6627506 -0.37850407
0.44555405 0.65903258 -0.37800631
0.4536669 0.67497945 -0.37863666
0.45567146 0.66486025 -0.37821123
0.45418888 0.6576438 -0.37749809
0.46251881 0.6634078 -0.37866157
0.46133614 0.65859771 -0.37824687
0.46997169 0.66277552 -0.37904158
0.46997151 0.65986353 -0.37904161
0.4844968 0.6734913 -0.37953588
0.48413643 0.66943318 -0.37955719
0.48430809 0.6571672 -0.37826338
0.49602938 0.67376649 -0.37947816
0.49551308 0.66343355 -0.37876177
0.49405512 0.65806901 -0.37854314
0.50346196 0.67361295 -0.37857163
0.50464624 0.66456789 -0.37902206
0.50334221 0.6582818 -0.37817493
0.51629549 0.67296684 -0.37909883
0.51445103 0.66556692 -0.37904054
0.514566 0.657076 -0.37806103
0.52575135 0.67346179 -0.37963203
0.52691573 0.66431659 -0.37912235
0.52378339 0.6557107 -0.37824613
0.53673381 0.66129148 -0.37823167
0.53552562 0.65692151 -0.37856385
0.54080284 0.66433495 -0.37960327
0.54676515 0.65662849 -0.37934262
0.55656731 0.65540969 -0.37946984
0.5774129 0.001293242 -0.37886795
0.57769382 -0.0048341155 -0.3775959
0.57740074 -0.014174074 -0.3767674
0.57909805 -0.022990912 -0.37496385
0.58908427 0.65648472 -0.37841335
0.58911741 0.64939952 -0.37886369
0.58996814 0.27747023 -0.37903291
0.59012896 0.19513609 -0.37914687
0.59014636 0.14573383 -0.37916243
0.58857971 0.13587067 -0.3787618
0.58871818 0.12721905 -0.37883702
0.58891112 0.11582145 -0.37904134
0.58845615 0.10585186 -0.37873891
0.58675116 0.096181989 -0.37840125
0.58788306 0.087534875 -0.37885731
0.58889621 0.074350536 -0.37908486
0.58820289 0.065623462 -0.37862357
0.58801121 0.055009365 -0.3789455
0.58843631 0.046211153 -0.37893024
0.58722973 0.034393787 -0.3784757
0.58555388 0.026219487 -0.37840787
0.5862211 0.015748352 -0.37908474
0.58441198 0.005869478 -0.37933412
0.58483678 -0.0027883649 -0.37437889
0.58149123 -0.013619483 -0.37408024
0.58298206 -0.028433204 -0.3751536
0.58298188 -0.030321866 -0.37515363
0.59692967 0.66347909 -0.37701547
0.59467393 0.65562755 -0.37537447
0.59451324 0.64937675 -0.37666026
0.59980756 0.42453402 -0.3765288
0.59975553 0.41437349 -0.37749842
0.5980441 0.40535775 -0.37614116
0.59861583 0.3959294 -0.37582514
0.59832197 0.38635334 -0.37630603
0.59681308 0.37592399 -0.37531212
0.59633976 0.36554557 -0.37530902
0.59556144 0.35549623 -0.37515631
0.59694892 0.34577897 -0.37567547
0.59694099 0.33519626 -0.37684959
0.59581316 0.32652473 -0.37606522
0.59743404 0.316219 -0.37747711
0.59769011 0.3065922 -0.37761176
0.59557027 0.29558021 -0.3775461
0.59365356 0.28520134 -0.37754586
0.59288365 0.27570012 -0.37704745
0.59396392 0.26657894 -0.37802133
0.59614128 0.25636154 -0.37856603
0.59622854 0.24661547 -0.37855333
0.59320605 0.2356565 -0.37779194
0.59235853 0.22602412 -0.37755081
0.59316278 0.21647488 -0.37776467
0.59544247 0.20521085 -0.37870795
0.59360445 0.19567396 -0.3780266
0.59486383 0.18631713 -0.37875485
0.59514058 0.17549072 -0.37904435
0.59588873 0.16651534 -0.37921751
0.59373921 0.15490645 -0.37929472
0.5920977 0.14841104 -0.37895739
0.59073341 0.1241165 -0.37955505
0.59039962 0.081720144 -0.37933636
0.59042883 0.079180896 -0.37935609
0.59125704 0.04035905 -0.37991062
0.59644121 0.026908487 -0.37942666
0.59507358 -0.00027754903 -0.3794474
0.60683244 0.664222 -0.37504336
0.60571921 0.65649903 -0.37427938
0.60558426 0.64888561 -0.37537289
0.60838467 0.63379103 -0.37189052
0.6086691 0.6287452 -0.37328094
0.60948569 0.57478917 -0.37683287
0.60857821 0.56590796 -0.37721097
0.60793167 0.55713105 -0.37732762
0.60949355 0.54383838 -0.37872949
0.60866392 0.53492957 -0.37711251
0.60833311 0.52611923 -0.37681589
0.60700011 0.51577592 -0.37639832
0.60760403 0.50599468 -0.37644389
0.6067614 0.49579424 -0.37566182
0.60488451 0.48555353 -0.37517071
0.60645401 0.47686422 -0.37749901
0.60707241 0.46614152 -0.37706575
0.60629225 0.45529148 -0.37611163
0.60570931 0.44586685 -0.37506038
0.60522693 0.43587473 -0.37622371
0.60460901 0.42595723 -0.37642136
0.60406405 0.41641003 -0.37672967
0.60781884 0.40633056 -0.37726337
0.60625142 0.39978224 -0.37774214
0.60905761 0.38510966 -0.37296432
0.60922974 0.37568694 -0.37251759
0.60858065 0.36616373 -0.37310115
0.60861444 0.35604337 -0.3717607
0.60744083 0.34629211 -0.37297255
0.6045472 0.33591193 -0.37440068
0.60800707 0.32562155 -0.3731344
0.60607982 0.31633475 -0.37401566
0.60591447 0.30584943 -0.37430301
0.60526478 0.29656869 -0.37544361
0.60608059 0.28500283 -0.37628514
0.60591507 0.27590746 -0.37673834
0.60689926 0.26633835 -0.37797976
0.60513884 0.25608036 -0.37724781
0.60393512 0.24629751 -0.37656087
0.6040414 0.23585518 -0.37631643
0.60535139 0.22582825 -0.37693092
0.6054799 0.21598221 -0.37650695
0.60677183 0.20629944 -0.37735331
0.60715771 0.19565853 -0.37776595
0.60715598 0.18604887 -0.37792847
0.60781133 0.17700209 -0.37848756
0.60690957 0.16716379 -0.37971115
0.6045928 0.14432684 -0.3797003
0.60362595 0.13166538 -0.37906519
0.60345727 0.12657665 -0.37895462
0.60493147 0.11165772 -0.37992573
0.60493845 0.10589883 -0.37993079
0.60494542 0.10013986 -0.37993589
0.61288255 0.66753137 -0.37299356
0.61114651 0.65654457 -0.37337893
0.6120863 0.64454788 -0.37550053
0.61383665 0.6375078 -0.37436756
0.61164176 0.62488383 -0.37414739
0.61274147 0.61621565 -0.37492192
0.61590809 0.60599518 -0.37602884
0.61555046 0.59626698 -0.37674457
0.61347216 0.58593136 -0.3762193
0.61296397 0.57634014 -0.3756654
0.61399174 0.56618387 -0.37484199
0.61403716 0.55555624 -0.37522084
0.6137262 0.54656529 -0.3761197
0.61598277 0.53639382 -0.37652451
0.61621064 0.52616447 -0.37583846
0.61595327 0.51662141 -0.37585834
0.61777967 0.50593323 -0.37630063
0.61818928 0.49581516 -0.37644619
0.61807662 0.48547995 -0.37637419
0.61468273 0.47497016 -0.37719846
0.61463827 0.46565515 -0.37506241
0.6156373 0.45706248 -0.37583628
0.61574763 0.44532979 -0.37400177
0.6154927 0.43670714 -0.37530798
0.61426955 0.42585582 -0.37571505
0.61240256 0.41576764 -0.37558609
0.61143774 0.40652692 -0.37460953
0.61082202 0.39578074 -0.37532315
0.61108267 0.38595146 -0.37657666
0.61093098 0.37572709 -0.37747827
0.61059338 0.3658531 -0.37681735
0.61101693 0.35626894 -0.37785012
0.61118352 0.34522539 -0.37658778
0.61140275 0.3361446 -0.37621722
0.61067837 0.32633814 -0.37702718
0.61071551 0.31709814 -0.37685734
0.6103133 0.30618432 -0.37663966
0.61062896 0.29511529 -0.37714291
0.61071718 0.28876832 -0.37545332
0.61169332 0.27389297 -0.37477234
0.61380887 0.2663632 -0.37665126
0.61397308 0.25607437 -0.37675902
0.61453992 0.24576373 -0.37712833
0.61515802 0.23995022 -0.37753072
0.61074704 0.17331876 -0.37844509
0.61214083 0.16804835 -0.37910384
0.6261512 0.63586599 -0.37275645
0.62431264 0.62654197 -0.37431684
0.62541682 0.61584914 -0.37502733
0.62609583 0.60615069 -0.37568164
0.62602407 0.59626931 -0.37721559
0.62316889 0.58563483 -0.37510297
0.62361258 0.57539672 -0.37538943
0.62478846 0.56596828 -0.37614733
0.62381828 0.55604035 -0.37552342
0.62377179 0.54544955 -0.37578592
0.62299502 0.53673744 -0.37621805
0.62216663 0.5259515 -0.3744624
0.62211949 0.51587677 -0.37472454
0.62076932 0.50567186 -0.37356439
0.62177992 0.49616766 -0.37421578
0.62184942 0.48584887 -0.37426147
0.62210542 0.47678322 -0.37564036
0.62162966 0.46643993 -0.37412152
0.6225 0.45659152 -0.37482035
0.62021959 0.44809914 -0.37364796
0.6222412 0.43429148 -0.37603566
0.62313586 0.42599294 -0.37661359
0.62189478 0.41615993 -0.37581375
0.62232912 0.40585968 -0.37609464
0.62351876 0.3956278 -0.37686303
0.62297982 0.38528484 -0.37637743
0.62428343 0.3751899 -0.37710375
0.62395453 0.3684794 -0.3771463
0.62812483 0.35380483 -0.37907505
0.62911832 0.34344777 -0.37895292
0.62911808 0.34019876 -0.37895298
0.63051432 0.36432904 -0.37985006
0.63047487 0.32334292 -0.37982795
0.63047457 0.32009023 -0.37982801
0.64202434 0.63686204 -0.37954316
0.18934251 -0.0043006241 -0.36542556
0.19680221 0.012846202 -0.36148906
0.19724602 0.008146435 -0.3617228
0.19709675 -0.005911231 -0.36578876
0.19823524 -0.010524124 -0.36322355
0.20742185 0.01149717 -0.36498776
0.20534569 0.0044825971 -0.364034
0.20338278 -0.0038122833 -0.36418337
0.20277986 -0.011653632 -0.36541051
0.21526264 0.0079509914 -0.36646909
0.22809497 0.67291188 -0.36017424
0.22192381 0.0084173381 -0.36641735
0.23802075 0.69238764 -0.36474073
0.23800026 0.68659312 -0.36642605
0.23251002 0.67394471 -0.36501405
0.23167714 0.66954482 -0.36405593
0.24234833 0.69480348 -0.36327958
0.24324071 0.68702841 -0.36414254
0.24627995 0.67259914 -0.36854976
0.2452241 0.003103286 -0.36388633
0.25034994 0.67347717 -0.3685765
0.25774145 0.0046897829 -0.36101961
0.25341892 -0.00018846989 -0.36378065
0.26657414 0.67831194 -0.36457166
0.26498035 0.015587717 -0.36698622
0.26698631 0.0071382821 -0.36856085
0.26061618 -0.0028147399 -0.3693158
0.27022007 0.67850131 -0.36091843
0.28328103 0.68153977 -0.36562303
0.28353345 0.67860818 -0.36354133
0.29264623 0.68107229 -0.36880574
0.29210556 0.67877954 -0.3661322
0.30560085 0.68172026 -0.36857444
0.30560064 0.67967701 -0.36857453
0.3059558 0.66325599 -0.36845392
0.30404648 0.65858591 -0.36722368
0.33227748 0.0019725859 -0.36090448
0.33316281 -0.00045907497 -0.36125341
0.57962567 -0.0071382523 -0.36254758
0.57904035 -0.015640944 -0.36373767
0.57839304 -0.02300787 -0.36524722
0.57969314 -0.029408813 -0.36628899
0.58320105 -0.0041973591 -0.36600891
0.58102769 -0.012820542 -0.36575225
0.58058041 -0.02491346 -0.36983913
0.60926741 0.66237062 -0.36915046
0.60828996 0.65365434 -0.36538175
0.60793793 0.64692771 -0.36616743
0.6091435 0.63414454 -0.3685717
0.6090731 0.62962329 -0.36827597
0.61428541 0.66497517 -0.36532474
0.61265421 0.65874028 -0.36552632
0.61290836 0.64361131 -0.36563459
0.61552811 0.63879067 -0.36702487
0.61166054 0.62645459 -0.36919445
0.19741428 0.012631685 -0.35854974
0.19613372 0.0095904469 -0.35759783
0.19754291 -0.007715255 -0.35425282
0.19978485 -0.010824919 -0.35753614
0.2050615 0.011885107 -0.35416028
0.20478201 0.0062091947 -0.35482362
0.2056327 -0.00421983 -0.35463607
0.21814293 0.0083818138 -0.35597646
0.22890075 0.67270815 -0.35577717
0.22884275 0.6700843 -0.35226503
0.22099234 0.0073240995 -0.35905308
0.23758419 0.69180268 -0.35578838
0.23756386 0.68791342 -0.35476759
0.23415075 0.67529982 -0.35533524
0.23529796 0.66946292 -0.35479739
0.24067992 0.69325203 -0.35648933
0.24206474 0.68520081 -0.35557362
0.24618539 0.6727823 -0.35563183
0.24449168 0.66983354 -0.35815045
0.25589177 0.70391738 -0.35115156
0.24995665 0.67194939 -0.35571438
0.25245211 0.03900668 -0.35184017
0.25832975 0.0046896935 -0.35967517
0.2544156 -0.00021752715 -0.35986245
0.27086499 0.68112028 -0.35708454
0.27084994 0.67860651 -0.35781252
0.28214803 0.6826728 -0.3573519
0.28360775 0.67730552 -0.3544794
0.28943327 0.65755904 -0.35196802
0.29033205 0.67130417 -0.35147944
0.29342338 0.6661377 -0.35415739
0.29003569 0.65755898 -0.35059136
0.32242143 0.013932914 -0.35201821
0.32703677 0.0073299408 -0.35587445
0.32643616 -0.0017880201 -0.35537383
0.33290374 0.0019724965 -0.35947329
0.33290356 0.00041031837 -0.35947332
0.57880759 -0.017357737 -0.35979897
0.57620358 -0.021718204 -0.35882795
0.60826862 0.65378237 -0.35681176
0.60677648 0.64687121 -0.3559038
0.61298227 0.66428345 -0.35765749
0.61128855 0.65899765 -0.35695705
0.19687581 0.012778848 -0.34386361
0.19943562 0.0069931149 -0.34033012
0.19486915 -0.0065026581 -0.34453821
0.19386292 -0.0099705458 -0.3409681
0.2060332 0.01103124 -0.34421018
0.20421636 0.0054638684 -0.34649736
0.20517725 -0.0040579736 -0.34496748
0.20154604 -0.011196494 -0.34374797
0.21405052 0.011475176 -0.34576768
0.2166478 0.009726584 -0.34578699
0.21073526 -0.003072083 -0.34566069
0.23844215 0.69358426 -0.34576839
0.23558904 0.68678105 -0.34240118
0.23480162 0.67411625 -0.34499255
0.23646796 0.6695084 -0.34706211
0.23992878 0.041272581 -0.34171161
0.2399286 0.039838433 -0.34171164
0.23393063 0.0053395629 -0.34602278
0.24035227 0.69533414 -0.34447724
0.24064963 0.68488824 -0.34693995
0.24758367 0.67321718 -0.34674433
0.2403121 0.041272521 -0.34083569
0.24031192 0.039838374 -0.34083569
0.24288094 0.0079529285 -0.34685478
0.26826566 0.35224926 -0.34729043
0.26246837 0.34693718 -0.34216687
0.2769329 0.67666066 -0.34502751
0.27956927 0.66916096 -0.34340927
0.27907559 0.6387552 -0.34298405
0.27833134 0.62509912 -0.34233975
0.2742151 0.61968291 -0.34001368
0.28004104 0.67552155 -0.34350556
0.28016478 0.66916084 -0.3420485
0.28553897 0.65272236 -0.34733012
0.28380972 0.64650297 -0.34611949
0.19998965 0.0069930553 -0.33906412
0.19840004 -0.0076594651 -0.33330902
0.196421 -0.010763884 -0.33032638
0.20478289 0.011530697 -0.33702117
0.20389025 0.0067552626 -0.33558011
0.20342898 -0.0043595135 -0.33500913
0.20444533 -0.012914658 -0.33348548
0.21534064 0.012013912 -0.33791628
0.22857819 0.018219978 -0.3314102
0.22993837 0.0094715655 -0.3362757
0.23660639 0.691553 -0.33419645
0.23739548 0.68715662 -0.33512443
0.23548163 0.67488241 -0.33536837
0.23681368 0.66949487 -0.33409411
0.23477355 0.035376132 -0.335816
0.23499195 0.02532807 -0.33601511
0.23383689 0.017458141 -0.3357251
0.230507 0.0094714761 -0.33497626
0.24188775 0.69534719 -0.33621991
0.2418603 0.68288398 -0.33458111
0.24187489 0.67833877 -0.33265761
0.24137726 0.66902405 -0.3331874
0.24578886 0.3941578 -0.33045822
0.24069536 0.041272461 -0.3399598
0.24069524 0.039838314 -0.3399598
0.25277507 0.67274892 -0.33172473
0.25022075 0.67038506 -0.33130738
0.26732749 0.67747986 -0.33711174
0.26634115 0.62715894 -0.33193752
0.26956049 0.61344928 -0.33596939
0.26445085 0.6066677 -0.33070895
0.2709195 0.63293576 -0.33590886
0.27288404 0.62588227 -0.33761388
0.27170196 0.61552703 -0.33596963
0.19716038 0.012384027 -0.32216001
0.19770388 0.006898731 -0.32254887
0.19634293 -0.0068776309 -0.3260774
0.19466737 -0.010465443 -0.32866421
0.20309624 0.014242798 -0.32473749
0.20309034 0.0029432476 -0.32395151
0.20413625 -0.0033066869 -0.32447663
0.20374134 -0.011501402 -0.3285003
0.21467994 0.013041586 -0.32326856
0.21423957 0.010066271 -0.32476443
0.22527191 0.016742021 -0.32780057
0.22073621 0.01049152 -0.32668087
0.23769073 0.69312119 -0.32595453
0.23759905 0.68774092 -0.32491127
0.23711859 0.67380261 -0.3230148
0.23543045 0.66917908 -0.3242403
0.23952822 0.3913044 -0.3212834
0.23952816 0.38988218 -0.32128343
0.23958176 0.29554367 -0.32254559
0.23869902 0.28416634 -0.32196626
0.23825404 0.2747772 -0.3211897
0.2383115 0.26669425 -0.32142398
0.23610672 0.25567651 -0.3207081
0.2317901 0.20418563 -0.32044718
0.23265691 0.19394356 -0.321266
0.23135932 0.18758744 -0.32066432
0.24118891 0.68377429 -0.32571363
0.24497204 0.67366099 -0.32374388
0.24248329 0.66895461 -0.32761472
0.24577092 0.43090248 -0.32013467
0.24594723 0.42521399 -0.32028952
0.24636416 0.39415771 -0.32914335
0.24479215 0.3856113 -0.32169718
0.24502012 0.37538972 -0.3230297
0.24539405 0.36569393 -0.32343718
0.24596792 0.35572678 -0.32394296
0.24617891 0.34571949 -0.32412955
0.24431755 0.33558306 -0.32249361
0.24254593 0.32761395 -0.32136685
0.24075721 0.30477774 -0.32298103
0.2411195 0.29555395 -0.32304025
0.24122846 0.28776383 -0.32315823
0.25950176 0.67311764 -0.32538843
0.2590268 0.6684612 -0.32436699
0.25760832 0.59709245 -0.32436439
0.25923157 0.29434878 -0.32121277
0.26008308 0.67311752 -0.32406014
0.26313391 0.66597891 -0.32792428
0.26233903 0.6029464 -0.32816094
0.26102641 0.59982139 -0.32732955
0.26138517 0.38070184 -0.32033512
0.26302305 0.37689838 -0.32107618
0.2602568 0.29469362 -0.32059184
0.18931153 -0.0074591041 -0.31192729
0.1893113 -0.0097145736 -0.31192735
0.19726418 0.012661517 -0.31684339
0.19703692 0.0091196895 -0.3163701
0.19660324 -0.006534487 -0.31357598
0.19840258 -0.01243785 -0.313337
0.20960698 0.021964699 -0.31065401
0.20688072 0.013873875 -0.31427929
0.20487009 0.0060655475 -0.31540349
0.204551 -0.0032463372 -0.31397933
0.21993212 0.16739257 -0.31048065
0.2191707 0.15486453 -0.31059018
0.21904488 0.1320987 -0.31323823
0.21904458 0.12977909 -0.31323829
0.21842445 0.11414555 -0.31268424
0.21787781 0.092677832 -0.31574646
0.21533324 0.085915506 -0.313456
0.21824981 0.075205266 -0.31608319
0.21695428 0.065672368 -0.31506553
0.21699162 0.056428373 -0.31623164
0.21810715 0.045823753 -0.31721359
0.21490015 0.035995811 -0.31425247
0.21319242 0.026398122 -0.31271312
0.2135572 0.017493576 -0.31665581
0.21453047 0.010035008 -0.31984049
0.21123227 -0.001767695 -0.31212536
0.22946747 0.24275056 -0.31449693
0.22649291 0.23673868 -0.3117553
0.22462371 0.22685665 -0.3107411
0.22992128 0.20203604 -0.31878299
0.22992107 0.19968826 -0.31878302
0.22790149 0.18120478 -0.31639019
0.22447757 0.17607811 -0.31334388
0.22406174 0.16960879 -0.3129746
0.220659 0.15242523 -0.31113011
0.22075135 0.12478408 -0.31476778
0.2224208 0.11837843 -0.31626415
0.22062728 0.071972221 -0.31822425
0.22045894 0.052004933 -0.31807482
0.22036092 0.050172806 -0.31798673
0.23584975 0.69217432 -0.31455252
0.23563467 0.68585455 -0.31377712
0.23748532 0.6753847 -0.31482524
0.23784964 0.67043197 -0.31497389
0.23981227 0.54762805 -0.31012398
0.2387798 0.4818477 -0.31042647
0.2387796 0.48043245 -0.3104265
0.23840806 0.4144488 -0.31249824
0.23424418 0.39343575 -0.31601849
0.23780887 0.32197931 -0.31677121
0.23405734 0.31571335 -0.31347275
0.23306225 0.30581519 -0.31259879
0.23167588 0.29574269 -0.3114571
0.23398042 0.28559321 -0.31520513
0.23792435 0.27764314 -0.31951809
0.23612911 0.26245359 -0.31949475
0.23620604 0.25604457 -0.31930611
0.23204362 0.24741223 -0.31630924
0.23160809 0.2033257 -0.31848919
0.23198766 0.19567429 -0.31916934
0.23091437 0.18578185 -0.31893769
0.24353822 0.69562954 -0.31294322
0.24156436 0.6842339 -0.31391048
0.24886239 0.67236733 -0.31698328
0.24741951 0.66633391 -0.31231317
0.2479786 0.65667951 -0.31119305
0.2487102 0.63399589 -0.31256565
0.24830405 0.62725478 -0.31279871
0.24458197 0.6113885 -0.31066421
0.24559692 0.60668534 -0.3109073
0.24850771 0.59178704 -0.31646964
0.24649216 0.58580965 -0.31472176
0.2448042 0.58044219 -0.31325778
0.24041438 0.55207306 -0.31064671
0.24183185 0.5432148 -0.31098187
0.24404737 0.52277166 -0.31260717
0.247517 0.51567137 -0.31561798
0.24407041 0.5055967 -0.31277886
0.2434966 0.49616715 -0.31333104
0.24124636 0.48707721 -0.31137654
0.24343213 0.45179883 -0.31688282
0.24237707 0.44589806 -0.31596196
0.24347712 0.43580285 -0.31688926
0.24500288 0.42548579 -0.31821603
0.24120101 0.41819948 -0.31493744
0.24009846 0.39130431 -0.31998044
0.24009828 0.38988209 -0.31998047
0.24177358 0.32552204 -0.31939703
0.24584056 0.31169128 -0.31058413
0.24916294 0.30823782 -0.31293616
0.24873796 0.2908068 -0.31188494
0.24873781 0.28985432 -0.31188494
0.2515232 0.65349793 -0.3142477
0.25360096 0.64579725 -0.31603897
0.25234449 0.6383999 -0.31447583
0.25005704 0.62852114 -0.31298688
0.25703123 0.38401651 -0.31538486
0.2543171 0.37221625 -0.31305951
0.25232363 0.36608228 -0.31143698
0.25102764 0.36045423 -0.3108418
0.25290969 0.30435127 -0.31530622
0.25752091 0.29876664 -0.31914788
0.26196626 0.38070178 -0.31900722
0.26268053 0.3782838 -0.31935799
0.28882012 0.31551608 -0.31035113
0.28761479 0.22554518 -0.31335896
0.29035968 0.31653893 -0.31038401
0.29110959 0.30767056 -0.31099832
0.30355215 0.40250689 -0.31743258
0.30355185 0.40000445 -0.31743258
0.19947743 0.01203087 -0.30382472
0.19947729 0.0097614527 -0.30382475
0.19745524 -0.0070721507 -0.30503935
0.19615009 -0.010527551 -0.30660933
0.20981592 0.091252327 -0.30555934
0.20981565 0.088959366 -0.30555937
0.20895417 0.073036462 -0.30292034
0.20779791 0.065596074 -0.30229419
0.20789278 0.055764377 -0.30291215
0.20782827 0.045833021 -0.30275539
0.2065818 0.036040097 -0.30235204
0.20540017 0.025140375 -0.30231962
0.20556518 0.014784157 -0.30465657
0.20520195 0.0057121515 -0.30432263
0.20567283 -0.0046096146 -0.30523345
0.21966115 0.39190146 -0.30080459
0.21966106 0.39051586 -0.30080462
0.21937986 0.21332619 -0.30198264
0.21799698 0.20574811 -0.30240518
0.21752687 0.19557464 -0.30356312
0.21757016 0.185528 -0.30367142
0.21618873 0.17523046 -0.30219656
0.21675777 0.16483921 -0.30466413
0.21694285 0.15570027 -0.30435318
0.21558888 0.14556618 -0.30485374
0.21450174 0.13638273 -0.30454284
0.21392155 0.12597746 -0.30512726
0.21382555 0.11546373 -0.30514669
0.21218883 0.10600311 -0.30534226
0.21255265 0.095678449 -0.30530974
0.2114616 0.085174799 -0.30443314
0.21101895 0.077724278 -0.3039659
0.21034375 0.02196458 -0.30897033
0.21034366 0.020586252 -0.30897036
0.21081573 -0.0020934045 -0.30734542
0.2293202 0.41242284 -0.30160931
0.22606193 0.40499601 -0.30184579
0.22737974 0.39643055 -0.30640912
0.22802107 0.38837126 -0.30342993
0.22930576 0.36565396 -0.30468944
0.22937343 0.35509187 -0.30502692
0.22926152 0.35003161 -0.30451584
0.22968213 0.33433455 -0.30688739
0.22972055 0.32890356 -0.3070491
0.22848594 0.31334642 -0.30526
0.22847696 0.30569261 -0.30501622
0.22699121 0.29542166 -0.3037172
0.22708552 0.28506789 -0.30526134
0.22597583 0.27605456 -0.30474252
0.22423254 0.265836 -0.30459756
0.2245975 0.25542784 -0.30633962
0.22489169 0.2456429 -0.30659992
0.22305197 0.23535457 -0.30555677
0.22223319 0.22559024 -0.30556676
0.2215637 0.21641397 -0.30588919
0.22200283 0.20768288 -0.3075937
0.22048996 0.16739249 -0.30920598
0.23944736 0.6936208 -0.30491945
0.23875608 0.6857506 -0.30607373
0.23568583 0.67483628 -0.30411693
0.23676704 0.66924036 -0.30436754
0.23953708 0.66006029 -0.30154526
0.23837768 0.6437133 -0.30055135
0.23892115 0.63653404 -0.30062383
0.23791932 0.6252284 -0.3007513
0.23667315 0.61811882 -0.30027235
0.23656134 0.60494357 -0.30017754
0.23934546 0.59267694 -0.30494931
0.2382786 0.58497542 -0.30372345
0.23693973 0.57460469 -0.30413139
0.23515765 0.56518763 -0.30154827
0.23499428 0.55673182 -0.30136585
0.23327319 0.54608971 -0.3007116
0.2326975 0.53611088 -0.30039659
0.23300821 0.51411915 -0.30043122
0.23351137 0.50650513 -0.30060583
0.23172468 0.49576798 -0.30073887
0.23378757 0.48547465 -0.30252981
0.237326 0.47559839 -0.30785215
0.23655574 0.46570787 -0.30730233
0.23414332 0.4554967 -0.30513075
0.23400767 0.44546032 -0.3050901
0.23546034 0.43588477 -0.30635339
0.23419271 0.42580843 -0.30525297
0.23210001 0.41560873 -0.30409542
0.23371817 0.40996501 -0.30840224
0.23277949 0.38492671 -0.30500841
0.23176491 0.37593979 -0.30589125
0.23024124 0.36462399 -0.30207816
0.23050021 0.35678723 -0.30299616
0.23132059 0.34521121 -0.30561721
0.2306527 0.33594307 -0.30450493
0.23353809 0.32496297 -0.30484074
0.23462154 0.31819454 -0.30535892
0.23105998 0.29124525 -0.30965102
0.23105977 0.28890356 -0.30965108
0.23241496 0.25153032 -0.30018151
0.23446564 0.2449649 -0.30100012
0.23422299 0.23897579 -0.30095786
0.24209692 0.69413185 -0.3052662
0.24103835 0.68543088 -0.30602768
0.24275281 0.66606182 -0.30501413
0.24414079 0.6592015 -0.30737731
0.24297309 0.62100673 -0.30807739
0.24186766 0.61502779 -0.30708641
0.24489661 0.60580301 -0.30900192
0.24110359 0.59758735 -0.30646613
0.24130802 0.59011078 -0.3066434
0.24014159 0.57674634 -0.30802029
0.24098265 0.552073 -0.30934817
0.2408037 0.54737258 -0.30907395
0.24758002 0.3553901 -0.30728576
0.24259897 0.34978998 -0.30301651
0.24033922 0.32377377 -0.30405021
0.24255717 0.31441551 -0.30621564
0.24641131 0.3097921 -0.30927932
0.244671 0.28842831 -0.30838087
0.25160146 0.36188522 -0.30953074
0.25160134 0.36045417 -0.30953076
0.25458086 0.33178872 -0.30008253
0.25978935 0.30328709 -0.30446672
0.25911677 0.29847938 -0.30270088
0.25914377 0.079308063 -0.30034763
0.2565898 0.028130859 -0.30120438
0.2612361 0.31146836 -0.30447927
0.2607193 0.30617511 -0.30380556
0.26081812 0.30041865 -0.30412933
0.26935664 0.066163987 -0.30768326
0.27626604 0.33164147 -0.30006084
0.27626589 0.33018431 -0.30006087
0.27170649 0.24147967 -0.30054879
0.27576819 0.23588741 -0.30389845
0.27982989 0.23027174 -0.30724818
0.2829414 0.41206548 -0.30126521
0.28714177 0.40791631 -0.30436429
0.28066131 0.32257158 -0.30244902
0.28791073 0.31613711 -0.30786407
0.28041774 0.23271446 -0.3059054
0.283066 0.22839513 -0.30860758
0.29354334 0.59217602 -0.30069128
0.29468387 0.58437783 -0.30082256
0.29425836 0.57952929 -0.3006562
0.29014292 0.40612608 -0.30529553
0.29075545 0.3165389 -0.30947959
0.30068162 0.59106988 -0.3051987
0.30145332 0.58934778 -0.30581817
0.30276367 0.5768491 -0.30687091
0.19551295 -0.0054028928 -0.29344022
0.20923747 0.13157883 -0.29659051
0.20891848 0.12713926 -0.29585212
0.21007593 0.1022231 -0.29937118
0.20885836 0.093207777 -0.29734027
0.20916969 0.085625499 -0.29740548
0.20894186 0.07538867 -0.29705203
0.20821482 0.06609717 -0.29708874
0.2079716 0.056019038 -0.29636288
0.20815517 0.045194179 -0.29745412
0.20795745 0.03518346 -0.2969588
0.20718838 0.025867313 -0.29504776
0.20717731 0.015829504 -0.29592311
0.20334874 0.0069046319 -0.29453278
0.20471218 -0.0021464825 -0.2945255
0.21667689 0.39432707 -0.29399651
0.2182042 0.39013743 -0.29485321
0.21916515 0.25533167 -0.29815942
0.21898641 0.24454184 -0.29636228
0.21846603 0.235737 -0.2949174
0.21847704 0.22513121 -0.29546231
0.21835607 0.21558277 -0.29523277
0.21646208 0.20487042 -0.2951563
0.21643193 0.19565171 -0.29560131
0.21707299 0.18589774 -0.29626215
0.21659769 0.17597267 -0.29560214
0.21681485 0.16539602 -0.29647022
0.21731779 0.15588972 -0.29661423
0.2158059 0.14579727 -0.29625976
0.21443388 0.13575731 -0.29629034
0.21408056 0.12524685 -0.29468971
0.21362869 0.11530292 -0.29599357
0.21274234 0.10582709 -0.29518121
0.21374249 0.09565714 -0.29574597
0.21210296 0.086282641 -0.29366779
0.21136875 0.075656295 -0.29420888
0.211588 0.065537095 -0.29538924
0.21135794 0.055704862 -0.29408854
0.21142322 0.045581669 -0.29499227
0.21092127 0.035571307 -0.29413152
0.21037421 0.023005217 -0.29499441
0.21091107 0.015084177 -0.29363769
0.2290238 0.52146184 -0.29194677
0.22925691 0.51802146 -0.29223084
0.22940047 0.48227873 -0.29461658
0.22923896 0.4772439 -0.29418528
0.22926739 0.46631709 -0.29497039
0.22936749 0.45348138 -0.29616427
0.22860859 0.44571301 -0.2950269
0.22882183 0.43579859 -0.29548466
0.22833948 0.42572746 -0.29413164
0.22762296 0.41541326 -0.29337567
0.22681318 0.40491301 -0.29586351
0.22560927 0.39557365 -0.2945891
0.22720918 0.38838726 -0.29710698
0.22689761 0.34266987 -0.29306066
0.22797081 0.33531383 -0.29398632
0.22872791 0.3297857 -0.29463917
0.22865453 0.29377675 -0.29135972
0.22968909 0.28270084 -0.29586345
0.22701371 0.27547058 -0.2962085
0.22473788 0.26520807 -0.2965135
0.22476293 0.25637433 -0.29553348
0.22155781 0.24632902 -0.29456514
0.22362651 0.23391198 -0.29353285
0.22439225 0.22582078 -0.29374224
0.22179066 0.21597482 -0.29247177
0.22213247 0.20581771 -0.2936275
0.22179286 0.19570087 -0.29333389
0.22461265 0.18512575 -0.29584992
0.22237892 0.17581718 -0.29410392
0.22201429 0.16582103 -0.29474276
0.22042045 0.15349704 -0.29622942
0.22046676 0.13455983 -0.29623294
0.22086826 0.1237683 -0.29647774
0.22124222 0.11890897 -0.297535
0.23455459 0.69166946 -0.29467458
0.23683415 0.68607485 -0.29470021
0.23681666 0.67474264 -0.29582912
0.23713568 0.66565287 -0.29324061
0.23682992 0.65546107 -0.2939378
0.23579194 0.64576101 -0.2945143
0.23598583 0.63595885 -0.29353642
0.2366181 0.62602317 -0.29346097
0.23519765 0.61540431 -0.29391927
0.23465386 0.60577786 -0.29424435
0.23381525 0.59487695 -0.2933569
0.23435345 0.58563536 -0.29415005
0.23556456 0.57575232 -0.29430121
0.23428659 0.56570268 -0.29430389
0.23281392 0.55562145 -0.29426664
0.23324393 0.54594785 -0.29429334
0.23269881 0.53557855 -0.29362643
0.23257168 0.52630424 -0.29421568
0.23346369 0.51458567 -0.29455644
0.2337907 0.50550151 -0.29355717
0.23322478 0.4956677 -0.29336333
0.2335932 0.48593438 -0.29338503
0.23227249 0.47551346 -0.29398853
0.23239215 0.4652999 -0.29386514
0.23303311 0.45611888 -0.29432046
0.23481622 0.44551149 -0.29330361
0.23380639 0.4360283 -0.29323393
0.23448655 0.42604721 -0.29304588
0.2347707 0.41585824 -0.29276639
0.23164435 0.4087061 -0.29655528
0.23554182 0.38671306 -0.29517114
0.23641627 0.37543777 -0.29417825
0.23088668 0.36883852 -0.29063231
0.23290123 0.34440228 -0.29470354
0.23226674 0.33549947 -0.29416066
0.23559758 0.32648963 -0.29792267
0.23712555 0.31525949 -0.29819649
0.2350903 0.30574477 -0.29658419
0.2314526 0.29821414 -0.29346657
0.23515283 0.28544998 -0.29391158
0.23397252 0.27199942 -0.29378438
0.23538965 0.26582283 -0.29386079
0.23431875 0.25599203 -0.29474032
0.23381707 0.24908859 -0.29936928
0.23194975 0.23641074 -0.29830718
0.24271472 0.6972667 -0.29360503
0.24043615 0.68298221 -0.29317534
0.2399682 0.67159992 -0.29600042
0.24000925 0.66666961 -0.2995792
0.2412965 0.65884817 -0.29673636
0.24308017 0.63205373 -0.29332453
0.24329297 0.62635005 -0.29091609
0.2428904 0.61594689 -0.29073215
0.24171621 0.60754126 -0.29040956
0.24233772 0.59495234 -0.29076618
0.24032621 0.52148241 -0.29159892
0.24017863 0.5194574 -0.2902981
0.24088614 0.50733739 -0.29305589
0.24036393 0.43420902 -0.29596335
0.24103165 0.42355409 -0.29669034
0.24141571 0.41826922 -0.29725403
0.24746294 0.38183519 -0.29054248
0.24746282 0.38041997 -0.29054248
0.24557577 0.36264658 -0.29089874
0.2447869 0.3561191 -0.29065955
0.24300352 0.34903896 -0.29034221
0.24454707 0.33596247 -0.29105198
0.24038659 0.32371876 -0.29993713
0.24793288 0.29290247 -0.2934913
0.24188679 0.28491521 -0.29087877
0.24112265 0.27669898 -0.29229707
0.24060334 0.26170158 -0.29127085
0.24937062 0.15348989 -0.29054844
0.24997404 0.14701152 -0.29133546
0.24898174 0.10276788 -0.29065883
0.24418133 0.085732818 -0.29018044
0.24289759 0.071866393 -0.29028082
0.24295074 0.062455773 -0.29032648
0.24646735 0.05602029 -0.29229158
0.24691886 0.046067953 -0.29311985
0.24752989 0.021612525 -0.29299873
0.24752976 0.02066806 -0.29299879
0.25343046 0.37582287 -0.29434782
0.25307098 0.36676571 -0.29404861
0.25225452 0.33266187 -0.29684967
0.25302368 0.32550958 -0.29758167
0.25310734 0.31647488 -0.29765266
0.25442225 0.29714483 -0.29437768
0.2589629 0.27269521 -0.29063207
0.25906709 0.26640227 -0.29036182
0.25437897 0.23194242 -0.2904042
0.25663814 0.22514179 -0.29138762
0.25770795 0.21792416 -0.29197782
0.25068325 0.15451761 -0.29089117
0.25061715 0.14601168 -0.29083687
0.25620222 0.086102515 -0.29554647
0.25257593 0.078938425 -0.29353774
0.25158703 0.042169511 -0.29581022
0.25305507 0.035489351 -0.29763699
0.2533533 0.025172561 -0.29784989
0.26580194 0.39583656 -0.29068214
0.26767033 0.3847194 -0.29207397
0.26772612 0.37588334 -0.29186124
0.2673924 0.36576504 -0.29180253
0.26683372 0.35724974 -0.2914837
0.26637536 0.34506047 -0.29114085
0.26150095 0.29325932 -0.29138386
0.26094338 0.28937784 -0.2910738
0.26075447 0.2621631 -0.29092079
0.26041096 0.25739443 -0.29123324
0.27873397 0.41512024 -0.29679435
0.27377796 0.33599576 -0.29677457
0.27685007 0.33018425 -0.29872596
0.27228847 0.24147961 -0.29921895
0.2722882 0.23906022 -0.29921895
0.2875087 0.65305048 -0.294622
0.28460062 0.64888585 -0.29228884
0.28807294 0.59843779 -0.29508007
0.28352922 0.41206542 -0.29992193
0.28352898 0.41011035 -0.29992199
0.29391626 0.67640758 -0.29245687
0.29191646 0.5946697 -0.29805362
0.29444301 0.58668607 -0.29932058
0.29485184 0.57952917 -0.29930007
0.30073765 0.68195486 -0.29115897
0.3007375 0.67997724 -0.29115897
0.18314141 -0.004963696 -0.28731382
0.19656582 -0.005500257 -0.28533375
0.19694577 -0.01046893 -0.28560323
0.20984045 0.18312664 -0.28067064
0.20981944 0.17949763 -0.28065276
0.20977232 0.16358659 -0.28118718
0.20978829 0.15722667 -0.28120154
0.20993938 0.14265725 -0.28152508
0.20898347 0.13542481 -0.28316736
0.20869489 0.12558736 -0.28204262
0.20810086 0.1159434 -0.28164214
0.20689943 0.10610887 -0.28093827
0.20714247 0.095136225 -0.28123617
0.20699801 0.085456967 -0.28176302
0.20781825 0.075697929 -0.28233582
0.20874774 0.065493494 -0.2845214
0.20748885 0.055738658 -0.28382355
0.2069425 0.045428544 -0.28334272
0.20531088 0.036005646 -0.28235906
0.20632862 0.025535256 -0.28236461
0.20679064 0.015026003 -0.28330672
0.20397553 0.0060939789 -0.28462565
0.20390902 -0.0024521351 -0.28377813
0.21923801 0.40253115 -0.28183049
0.21765174 0.39446622 -0.28972071
0.2199228 0.33107352 -0.28126949
0.21992263 0.32969841 -0.28126955
0.21934497 0.31821796 -0.28077716
0.21904753 0.29531425 -0.28052539
0.21769957 0.27503529 -0.28283262
0.21465012 0.26696986 -0.28081918
0.21331412 0.25793993 -0.28021616
0.2134026 0.24518435 -0.28029358
0.21905747 0.21329297 -0.28767031
0.21660802 0.20566063 -0.28511506
0.21330044 0.19592567 -0.28250974
0.21222998 0.18831381 -0.28158659
0.21396998 0.17415281 -0.28136778
0.21509495 0.16696918 -0.28154904
0.21384183 0.15445277 -0.28491426
0.21262805 0.14614031 -0.28511995
0.21068414 0.13846011 -0.28408605
0.21142638 0.12426437 -0.28147358
0.21212439 0.11341482 -0.28087008
0.21350659 0.10575485 -0.28097165
0.21374945 0.094628841 -0.28104919
0.21429996 0.085133344 -0.28470403
0.21408531 0.075190693 -0.28535801
0.21459113 0.065288216 -0.28482503
0.21544324 0.055856615 -0.28387576
0.21681087 0.045009255 -0.28303808
0.21673581 0.035740733 -0.28213668
0.21697485 0.025593132 -0.28231317
0.21423538 0.016371995 -0.28116196
0.22974588 0.52375561 -0.28299081
0.22960219 0.51676202 -0.28486502
0.22842191 0.50709879 -0.28037554
0.22757977 0.44450223 -0.28223234
0.22579251 0.43425179 -0.28084302
0.22884232 0.41365463 -0.28863162
0.22444659 0.40625191 -0.28396636
0.22349243 0.39593285 -0.28396875
0.22651125 0.39058596 -0.28689212
0.22261304 0.37203395 -0.28009528
0.22762105 0.36384842 -0.28667843
0.22605932 0.3561725 -0.28507537
0.22193468 0.34635994 -0.28203666
0.22310075 0.33502245 -0.28121161
0.22577164 0.32865652 -0.28062427
0.22882074 0.31558883 -0.28106934
0.22898203 0.30923682 -0.28086823
0.22667852 0.29167938 -0.28879184
0.22219145 0.28595075 -0.28561139
0.22032513 0.27956927 -0.28431511
0.22141206 0.24485877 -0.28024077
0.22226948 0.23213869 -0.28074086
0.22296099 0.22504221 -0.28077537
0.22525293 0.21588396 -0.28458029
0.22891559 0.20494677 -0.28479248
0.22943662 0.19667263 -0.28422749
0.22959554 0.18468247 -0.28399169
0.2284108 0.17575508 -0.28398257
0.22734836 0.16621806 -0.28416854
0.22677027 0.15565553 -0.28410304
0.22638978 0.14572453 -0.28424937
0.22725201 0.13526581 -0.28481764
0.22765757 0.1253752 -0.28458661
0.22709204 0.11555882 -0.28385872
0.2269963 0.10562688 -0.28408885
0.22658145 0.095824182 -0.28390694
0.22597232 0.085538834 -0.28361923
0.22336431 0.075582922 -0.28286743
0.22458124 0.065279394 -0.28320855
0.22324625 0.055656284 -0.28257126
0.22345835 0.047162592 -0.28189296
0.22559087 0.034603357 -0.2814213
0.22478974 0.027626127 -0.28142267
0.23613665 0.69351208 -0.28336412
0.23499197 0.68575251 -0.28447556
0.23428866 0.67480028 -0.28468579
0.23748121 0.66641462 -0.28575677
0.23854171 0.65547115 -0.28553611
0.23688604 0.64516854 -0.28761238
0.23681964 0.63589311 -0.28793532
0.23855302 0.62637055 -0.28918552
0.2371247 0.61536932 -0.28888232
0.23508483 0.60498971 -0.28791046
0.2351751 0.5961172 -0.28793699
0.23635131 0.58523506 -0.28763342
0.23664904 0.57638776 -0.28806502
0.2363697 0.56565505 -0.28704023
0.23464569 0.55547351 -0.28683424
0.23619039 0.5456081 -0.28721362
0.23496971 0.53608292 -0.2862007
0.23428875 0.52594864 -0.28723103
0.23333511 0.51669395 -0.28727442
0.23837677 0.51063061 -0.28995168
0.23755261 0.49545068 -0.28925633
0.23801781 0.48341304 -0.28965086
0.23571505 0.47487774 -0.28866225
0.2350177 0.46532494 -0.28571069
0.23170023 0.45552477 -0.28547704
0.23067936 0.44895267 -0.28422529
0.23390159 0.38383931 -0.28307223
0.23811972 0.37609431 -0.2851783
0.2314456 0.36883843 -0.28935504
0.23954947 0.31409431 -0.28042364
0.23261589 0.30421901 -0.28393608
0.23718295 0.29543471 -0.28779197
0.23969795 0.28601426 -0.28560287
0.23631944 0.27389991 -0.28368628
0.23506235 0.26621991 -0.28282231
0.23448615 0.25535679 -0.28387541
0.23461679 0.24571717 -0.28494638
0.23347214 0.23577234 -0.28345329
0.2329295 0.22581913 -0.28329802
0.23332867 0.21571337 -0.28292167
0.23197743 0.2061244 -0.28198028
0.23138568 0.19355087 -0.28230947
0.23329367 0.18668951 -0.28265631
0.23465277 0.17755981 -0.28148305
0.23182561 0.16445524 -0.28256589
0.23470075 0.15652503 -0.28220731
0.23656611 0.14547561 -0.28261286
0.2362459 0.13575798 -0.28234524
0.23651756 0.12559964 -0.28286421
0.23831628 0.11576319 -0.28408295
0.2376769 0.10564786 -0.28354806
0.23594818 0.095793813 -0.28209978
0.23415257 0.085847557 -0.28307688
0.23926911 0.077464908 -0.28622365
0.23082368 0.063200951 -0.28206033
0.23134583 0.044632077 -0.2828902
0.23055597 0.036894679 -0.28157109
0.23434913 0.02486375 -0.28320056
0.23653673 0.015688747 -0.28376806
0.23458688 0.0081192255 -0.28151649
0.24155554 0.69499898 -0.28259027
0.24041067 0.68480372 -0.28461403
0.24063089 0.66304457 -0.28649724
0.24217364 0.656317 -0.28805739
0.24067552 0.64546549 -0.28654969
0.24087889 0.63514292 -0.28815043
0.24398468 0.62372482 -0.28734839
0.24512579 0.61574888 -0.28475755
0.2430134 0.6053434 -0.28658199
0.2421784 0.59644318 -0.28878951
0.24492541 0.58661795 -0.28256881
0.24136996 0.57603377 -0.28716177
0.24651848 0.56211823 -0.2803331
0.24639057 0.55785149 -0.28022802
0.24317309 0.53182417 -0.2804935
0.24528323 0.52769601 -0.28135335
0.24415439 0.51448989 -0.28171372
0.24391685 0.50546813 -0.28132927
0.2424808 0.49625659 -0.28097433
0.24177535 0.48760849 -0.28089565
0.24380387 0.47548884 -0.28113008
0.2402599 0.46170303 -0.28158402
0.2420309 0.45522124 -0.28276271
0.24397431 0.4461762 -0.2847997
0.24277166 0.43532953 -0.28411937
0.24442221 0.42540023 -0.28471172
0.2442425 0.41574752 -0.28474206
0.24283129 0.4055925 -0.28431857
0.24386396 0.39561746 -0.28495938
0.24565722 0.38520989 -0.28698134
0.24811961 0.37525916 -0.28279942
0.2456241 0.36685774 -0.28593069
0.24688382 0.35467017 -0.28738129
0.24366935 0.3456102 -0.28654325
0.24552122 0.337363 -0.28535962
0.2444317 0.32866827 -0.2806375
